ncols               356
nrows               32
xllcorner    484497.492
yllcorner     153502.967
cellsize       1000.000
NODATA_value -999
-999.000 -999.000 -999.000 -999.000 -999.000 -999.000 -999.000 -999.000 -999.000 -999.000 -999.000 -999.000 -999.000 -999.000 -999.000 -999.000 -999.000 -999.000 -999.000 -999.000 -999.000 -999.000 -999.000 -999.000 -999.000 -999.000 -999.000 -999.000 -999.000 -999.000 -999.000 -999.000 -999.000 -999.000 -999.000 -999.000 -999.000 -999.000 -999.000 324.873 329.072 355.609 357.449 356.860 17.233 78.323 117.257 130.579 126.631 137.853 205.263 110.056 109.503 101.723 90.832 167.060 136.856 135.000 135.000 315.000 315.000 35.281 45.000 315.854 314.995 319.496 298.167 334.900 78.305 60.875 13.282 47.669 26.133 24.524 35.664 41.741 338.468 301.779 318.637 325.152 5.573 316.249 301.675 284.069 310.379 312.023 21.233 110.719 66.043 40.679 324.793 334.255 33.413 93.036 318.315 253.665 86.273 111.560 300.164 286.216 13.303 3.576 307.525 358.799 0.040 8.978 354.873 318.387 343.167 27.263 50.427 48.937 199.838 240.174 221.224 194.191 172.948 125.624 111.740 93.776 80.966 58.008 282.798 259.969 80.037 96.635 280.229 294.635 241.098 237.441 224.281 213.424 188.541 169.217 174.370 196.249 199.610 198.631 64.201 277.175 303.009 299.613 318.888 9.739 16.514 8.205 19.066 13.294 293.874 314.333 159.392 183.840 207.428 230.523 220.504 146.194 136.553 118.338 341.414 359.270 22.868 301.351 235.190 209.255 210.004 323.212 25.276 37.400 47.575 78.027 50.097 313.438 289.212 357.207 96.567 276.385 242.953 94.139 107.270 64.890 261.284 270.531 288.517 341.220 46.700 52.861 24.078 42.357 19.880 347.471 288.481 229.128 232.155 218.220 198.116 144.301 278.828 283.724 326.428 77.398 167.405 177.133 109.879 97.109 20.476 37.225 42.674 55.290 310.910 248.070 245.332 260.230 252.930 317.441 36.109 52.682 359.085 278.493 182.321 156.826 230.216 251.197 308.104 121.321 188.292 170.157 217.275 247.544 325.116 80.385 22.216 297.845 26.856 111.691 152.642 199.991 144.639 139.319 187.651 173.312 100.881 70.969 107.867 181.285 229.820 187.570 144.675 183.973 204.722 131.004 132.212 145.889 171.436 144.739 158.302 185.392 163.546 126.151 270.936 3.794 28.429 323.343 337.859 42.504 40.277 358.474 290.691 293.596 285.497 301.821 297.482 285.320 351.227 70.020 71.411 20.860 275.215 269.350 290.596 335.768 41.837 12.199 306.006 309.690 67.726 113.210 119.070 82.524 275.251 303.875 309.301 313.260 351.405 50.807 88.809 109.794 93.457 319.844 319.076 333.311 34.074 284.029 285.866 307.468 337.691 258.909 242.636 177.719 72.029 295.048 341.573 30.340 263.393 323.944 136.263 168.839 157.056 135.030 171.480 183.235 147.626 158.203 194.145 177.429 170.466 172.350 164.970 159.297 157.407 162.543 79.598 9.636 38.447 334.387 309.528 337.759 323.372 315.650 47.310 51.863 338.245 317.082 290.327 253.960 258.637 -999.000 -999.000 -999.000 -999.000 -999.000 -999.000 -999.000 -999.000 -999.000 -999.000 -999.000
-999.000 -999.000 -999.000 -999.000 -999.000 -999.000 -999.000 -999.000 -999.000 -999.000 -999.000 -999.000 -999.000 -999.000 -999.000 -999.000 -999.000 -999.000 -999.000 -999.000 -999.000 -999.000 -999.000 -999.000 -999.000 -999.000 -999.000 -999.000 -999.000 -999.000 -999.000 -999.000 -999.000 -999.000 -999.000 -999.000 -999.000 -999.000 -999.000 323.014 328.704 315.988 30.957 87.963 112.321 127.103 134.273 126.535 133.020 167.700 179.531 159.717 146.859 156.667 149.281 135.000 135.000 315.000 315.000 315.734 34.455 32.274 328.141 317.381 321.540 318.661 329.832 62.452 89.711 24.606 33.452 20.719 26.696 37.392 50.668 99.853 296.842 312.428 311.671 345.008 0.282 346.174 290.174 273.053 208.142 237.718 201.660 83.074 140.170 333.455 349.992 24.857 31.415 66.824 238.761 276.605 320.482 59.493 341.742 336.678 336.662 292.735 276.525 43.181 108.539 359.257 275.505 344.163 312.223 352.885 54.904 33.412 215.779 324.149 317.535 346.642 3.952 33.537 51.551 78.991 85.326 63.019 285.644 241.770 70.036 119.903 322.613 302.155 291.086 276.381 282.406 238.866 199.654 133.766 205.368 241.686 187.771 271.257 306.978 311.727 313.139 349.802 329.948 324.860 35.084 38.811 359.392 348.643 357.124 352.880 2.821 357.245 307.569 239.541 211.424 157.370 154.098 189.353 334.027 323.727 358.048 357.900 348.153 338.350 320.285 321.610 12.361 63.444 90.810 90.342 86.849 266.947 278.312 40.458 57.019 275.513 298.539 151.705 75.113 99.284 295.545 275.302 272.753 347.434 42.082 50.503 34.127 358.567 352.694 357.376 12.538 357.775 296.662 201.292 198.936 165.763 241.522 272.228 273.152 67.940 83.012 27.598 16.906 7.633 358.629 6.345 40.755 62.444 78.104 286.602 273.250 279.498 289.141 261.120 196.882 159.212 181.987 163.048 153.367 182.350 289.270 311.368 345.286 176.450 82.910 148.391 225.247 238.227 245.514 120.476 180.696 263.595 177.319 92.224 70.727 58.328 33.925 81.694 219.508 190.515 126.945 119.951 92.732 160.168 207.559 184.073 173.725 187.625 195.067 151.434 138.021 148.631 160.975 161.870 187.531 208.501 18.096 306.368 323.702 43.041 62.352 329.864 299.090 20.011 55.704 127.228 271.098 243.295 214.866 229.553 236.135 255.431 47.062 78.534 79.058 98.929 264.842 250.032 260.581 261.626 73.957 9.613 260.343 35.635 129.638 125.526 119.909 32.595 295.215 309.083 326.356 315.962 125.318 134.906 134.209 115.544 86.497 277.349 315.033 8.762 50.661 290.733 270.228 302.248 29.765 351.614 263.945 272.073 15.048 216.701 56.274 145.727 242.383 220.435 77.012 171.125 119.694 110.676 167.221 187.319 166.720 168.708 178.945 181.310 184.035 178.761 137.313 61.778 343.415 9.586 356.894 325.115 6.500 16.829 315.898 296.687 330.573 333.306 7.274 40.102 12.877 20.606 339.465 297.709 269.660 -999.000 -999.000 -999.000 -999.000 -999.000 -999.000 -999.000 -999.000 -999.000 -999.000 -999.000
-999.000 -999.000 -999.000 -999.000 -999.000 -999.000 -999.000 -999.000 -999.000 -999.000 -999.000 -999.000 -999.000 -999.000 -999.000 -999.000 -999.000 -999.000 -999.000 -999.000 -999.000 -999.000 -999.000 -999.000 -999.000 -999.000 -999.000 -999.000 -999.000 -999.000 -999.000 -999.000 -999.000 -999.000 -999.000 -999.000 -999.000 -999.000 -999.000 -999.000 253.010 228.157 144.764 144.182 142.336 150.485 133.210 121.887 114.722 130.326 124.689 168.449 173.035 130.163 130.042 51.072 315.009 315.005 355.042 16.055 35.616 23.553 319.336 316.593 328.661 320.904 329.254 89.940 36.612 314.282 349.201 45.234 80.152 80.778 106.938 64.967 272.969 301.791 266.764 305.870 86.591 347.369 278.842 281.200 207.622 223.909 228.347 76.798 82.523 163.988 250.546 208.013 125.786 94.956 262.820 285.286 38.126 11.096 274.658 260.882 208.565 206.259 260.588 278.727 179.475 330.461 286.448 347.449 332.995 6.363 56.603 41.358 43.624 334.872 298.885 305.385 9.635 52.051 25.392 35.223 77.458 67.036 254.287 290.021 103.606 85.038 259.320 236.944 295.854 251.581 327.089 264.866 189.464 185.638 193.312 195.688 244.472 262.560 299.689 330.592 250.969 222.816 201.720 184.585 191.499 211.734 283.698 322.506 336.446 354.891 3.543 12.111 20.544 17.803 328.430 273.646 287.071 332.766 314.856 326.939 356.358 5.232 8.327 356.806 345.332 310.648 43.507 115.927 110.238 100.468 141.543 272.542 277.154 19.842 16.057 284.330 325.552 70.580 46.916 3.458 322.475 308.093 301.656 251.184 14.281 57.874 15.866 21.377 25.113 340.279 349.479 29.159 20.140 307.594 318.860 324.958 301.824 292.565 11.535 56.948 7.570 355.940 19.641 36.725 66.870 8.324 59.173 58.079 71.238 339.782 264.393 254.475 219.541 184.515 173.890 156.164 153.081 179.637 190.722 252.481 283.609 258.584 350.206 145.727 120.470 85.968 227.697 236.234 236.324 163.581 147.979 149.929 140.522 75.975 78.388 52.333 99.606 95.095 170.441 205.525 153.919 147.380 130.157 148.599 172.940 168.581 178.254 189.005 182.092 175.310 144.157 153.738 227.938 307.219 341.212 351.709 1.753 348.295 324.659 16.319 48.414 301.991 297.116 39.062 51.566 44.294 324.010 238.462 226.305 215.707 240.496 261.679 245.349 62.876 63.525 66.963 330.545 255.530 254.361 264.711 40.069 56.164 278.639 88.996 114.947 100.555 79.378 328.095 295.040 334.811 274.602 37.813 152.355 132.455 129.128 118.017 155.438 276.402 267.068 314.765 61.197 72.656 284.844 259.964 70.255 65.887 297.516 297.575 21.792 359.854 29.258 103.201 147.423 178.923 146.784 130.747 130.955 148.209 155.294 156.507 325.428 342.252 358.678 359.782 2.649 25.860 352.372 345.268 28.461 357.332 320.512 329.458 8.717 31.032 301.240 278.762 268.592 277.751 58.183 62.209 336.632 29.602 68.706 285.622 254.887 -999.000 -999.000 -999.000 -999.000 -999.000 -999.000 -999.000 -999.000 -999.000 -999.000 -999.000
-999.000 -999.000 -999.000 -999.000 -999.000 -999.000 -999.000 -999.000 -999.000 -999.000 -999.000 -999.000 -999.000 -999.000 -999.000 -999.000 -999.000 -999.000 -999.000 -999.000 -999.000 -999.000 -999.000 -999.000 -999.000 -999.000 -999.000 -999.000 -999.000 -999.000 -999.000 -999.000 -999.000 -999.000 -999.000 -999.000 -999.000 -999.000 -999.000 -999.000 286.129 226.451 106.509 109.430 132.633 134.580 126.702 111.345 108.968 47.236 267.534 68.716 73.410 75.289 48.496 319.554 317.194 339.826 357.744 18.862 9.712 340.448 350.710 294.281 284.346 350.737 76.430 62.041 5.933 310.336 355.705 75.245 102.241 105.730 118.595 334.326 294.936 283.072 300.829 324.995 33.010 352.328 342.499 341.623 357.486 4.309 5.336 102.122 121.908 196.337 192.784 164.601 158.998 36.557 296.294 309.565 3.724 31.325 309.499 305.319 313.444 297.993 298.680 290.368 358.810 309.713 337.460 359.110 332.670 4.736 51.525 46.761 53.897 277.440 240.995 193.026 171.013 104.336 43.069 61.426 72.901 69.876 279.579 357.185 93.191 51.758 205.435 227.477 214.021 202.393 208.625 215.514 206.240 228.417 294.895 308.244 43.238 92.698 246.425 234.763 249.395 204.761 231.101 220.277 125.385 141.118 298.263 306.826 356.506 358.266 8.284 29.613 42.230 68.708 351.107 307.223 314.466 337.538 19.709 355.996 280.543 234.917 125.225 176.160 227.010 213.005 146.396 125.500 121.437 122.932 263.989 283.839 275.419 37.169 199.830 298.477 274.456 32.873 41.948 355.880 333.131 317.321 233.908 199.074 188.629 124.040 114.490 329.257 342.009 333.049 343.490 38.203 25.743 11.403 353.015 336.299 323.727 323.055 326.237 85.055 54.897 345.091 344.909 348.603 116.479 103.158 104.137 97.492 85.517 255.004 254.002 233.667 204.949 179.511 167.903 162.294 195.776 243.737 318.096 291.408 265.678 224.101 158.228 112.400 145.003 54.785 249.568 278.581 219.286 69.185 123.605 180.268 195.148 168.439 158.657 158.050 152.098 130.755 155.434 197.275 166.997 136.627 128.745 139.258 212.410 277.051 351.994 142.328 151.196 147.239 122.893 130.564 326.186 329.975 343.178 348.950 5.819 332.711 311.661 30.695 64.404 31.446 281.185 308.622 71.230 66.953 197.447 238.612 207.997 222.690 241.179 251.705 266.837 61.605 50.065 44.189 18.624 287.444 259.407 270.661 338.078 346.886 26.177 81.953 11.272 75.259 30.504 295.879 285.562 287.093 188.405 116.711 115.697 123.326 134.952 114.535 249.522 273.653 244.410 252.040 86.100 49.917 197.711 273.766 250.676 113.104 333.068 289.084 200.095 74.046 128.055 107.071 183.297 196.798 178.355 161.713 135.623 147.852 321.548 343.196 2.920 353.355 354.604 3.486 345.988 25.201 2.485 332.767 1.622 340.910 340.648 322.734 19.343 62.308 267.476 262.668 252.634 226.530 328.601 54.609 60.375 43.732 76.262 230.326 -999.000 -999.000 -999.000 -999.000 -999.000 -999.000 -999.000 -999.000 -999.000 -999.000 -999.000 -999.000
-999.000 -999.000 -999.000 -999.000 -999.000 -999.000 -999.000 -999.000 -999.000 -999.000 -999.000 -999.000 -999.000 -999.000 -999.000 -999.000 -999.000 -999.000 -999.000 -999.000 -999.000 -999.000 -999.000 -999.000 -999.000 -999.000 -999.000 -999.000 -999.000 -999.000 -999.000 -999.000 -999.000 -999.000 -999.000 -999.000 -999.000 -999.000 -999.000 -999.000 313.784 77.653 112.025 109.753 126.962 147.563 120.297 133.139 160.833 129.481 131.325 54.908 47.959 55.008 336.146 318.353 300.803 306.471 13.548 24.275 20.695 356.264 305.232 306.244 305.212 324.567 89.300 43.066 278.667 303.488 93.309 107.940 111.968 99.344 92.103 304.808 308.202 318.809 330.719 0.731 13.346 326.826 330.749 7.112 10.989 352.338 348.005 73.652 71.169 66.230 154.180 338.908 95.779 73.917 284.043 278.167 7.739 318.253 327.727 332.436 338.592 356.269 13.357 339.773 318.213 280.067 326.933 321.488 19.286 54.697 42.474 70.110 29.415 328.035 292.919 277.084 327.985 59.802 78.275 103.469 91.850 108.714 325.586 10.802 49.464 64.432 43.387 302.069 231.348 245.076 199.416 280.415 320.024 350.076 349.150 356.848 341.788 293.708 279.149 296.757 354.471 343.960 344.906 11.264 348.704 316.256 317.287 261.133 267.943 211.254 162.492 143.652 129.397 96.018 351.210 299.640 332.503 63.255 193.872 191.219 179.538 181.410 175.305 176.340 186.511 195.128 165.379 98.499 89.155 73.938 314.432 296.651 299.445 354.252 139.061 318.639 232.417 32.922 82.710 351.082 291.789 239.969 142.220 183.845 218.083 243.418 271.005 356.288 352.745 339.769 315.298 26.803 37.131 3.361 341.603 342.184 293.608 217.011 237.335 169.588 142.695 210.624 155.225 102.073 96.568 150.074 140.875 126.852 109.599 192.323 256.898 221.207 185.238 187.979 211.956 244.987 345.070 329.462 337.896 334.865 274.769 19.011 145.449 116.643 115.889 173.570 255.393 256.342 200.725 173.400 137.786 161.346 154.218 170.958 166.275 156.174 152.272 148.322 140.137 163.612 170.844 155.655 195.366 292.106 15.122 2.714 353.608 0.970 17.787 31.566 29.802 327.993 313.403 319.787 335.361 351.161 14.999 6.522 332.728 12.025 43.972 71.845 287.020 273.102 92.604 77.120 100.268 207.715 230.241 253.648 243.619 236.589 260.197 220.648 54.739 63.303 73.726 306.313 269.507 275.061 290.545 90.939 49.092 24.097 68.514 17.117 348.621 269.398 315.952 186.361 102.442 136.635 150.672 124.699 107.896 285.961 327.749 0.695 282.455 248.049 259.068 40.622 66.822 343.451 273.388 280.145 275.505 239.494 146.594 162.527 184.661 168.971 344.141 357.209 21.338 59.914 86.499 51.896 307.150 318.768 356.261 344.977 357.627 357.495 351.151 47.161 336.141 329.935 34.570 322.736 325.412 318.863 32.285 90.726 258.747 257.091 225.917 179.636 191.646 227.524 296.425 29.523 26.329 -999.000 -999.000 -999.000 -999.000 -999.000 -999.000 -999.000 -999.000 -999.000 -999.000 -999.000 -999.000 -999.000
-999.000 -999.000 -999.000 -999.000 -999.000 -999.000 -999.000 -999.000 -999.000 -999.000 -999.000 -999.000 -999.000 -999.000 -999.000 -999.000 -999.000 -999.000 -999.000 -999.000 -999.000 -999.000 -999.000 -999.000 -999.000 -999.000 -999.000 -999.000 -999.000 -999.000 -999.000 -999.000 -999.000 -999.000 -999.000 -999.000 -999.000 -999.000 -999.000 300.608 199.025 136.931 116.156 123.426 130.862 125.558 116.135 134.126 114.033 189.052 220.149 146.435 134.628 134.241 316.999 289.479 277.690 307.726 327.373 75.279 8.231 282.293 334.308 292.690 329.005 169.121 62.700 62.172 283.849 161.712 116.776 120.162 115.180 82.702 322.605 302.060 313.424 311.165 331.035 13.679 18.435 322.163 306.420 316.294 347.933 99.486 86.542 67.288 54.240 94.633 357.229 271.300 334.452 316.147 304.910 208.410 37.691 275.540 302.739 316.148 342.011 356.681 339.781 322.629 229.625 270.786 241.996 324.670 267.021 336.203 58.633 21.683 19.833 359.569 347.907 352.738 347.283 11.197 67.150 91.852 103.765 126.788 283.167 27.416 64.222 77.946 36.163 2.504 259.768 285.784 302.566 294.978 331.966 321.072 322.243 336.664 37.897 17.687 319.087 325.230 298.366 339.885 315.943 346.933 0.888 347.759 299.767 247.719 197.486 195.265 150.317 125.010 108.679 40.682 300.495 295.974 140.130 160.501 158.078 170.247 184.170 181.798 170.403 179.840 189.711 201.766 190.806 110.554 80.472 353.994 290.291 283.556 277.443 313.418 273.111 279.938 345.041 345.687 325.939 7.527 130.407 122.497 152.001 247.488 320.403 324.813 341.784 45.463 101.582 195.579 229.650 269.782 126.974 16.247 199.725 175.436 183.216 211.994 212.209 97.013 131.647 171.088 205.843 172.181 105.601 115.991 114.882 110.548 95.006 312.525 318.112 11.414 3.550 286.411 343.137 347.267 329.976 330.584 7.080 325.532 277.656 55.422 71.649 158.483 33.580 133.936 250.321 225.651 181.299 154.950 139.947 138.329 162.303 165.296 173.282 168.126 148.628 146.316 181.609 216.354 211.891 63.817 33.937 349.983 331.278 338.575 355.984 15.930 28.835 38.010 57.164 330.793 267.968 290.660 287.047 308.827 347.194 11.197 354.729 41.329 80.321 74.349 287.028 278.954 83.759 83.094 86.472 53.486 243.390 255.551 250.307 254.901 261.387 233.416 100.942 96.216 90.000 286.576 276.369 283.396 278.742 16.424 55.312 57.488 84.799 13.742 316.061 328.672 347.329 31.528 156.487 111.180 94.153 94.854 2.817 282.118 313.825 40.662 42.794 273.883 280.132 126.019 44.479 120.733 287.550 278.306 261.780 327.536 51.752 133.772 20.628 24.728 355.285 0.914 26.653 43.237 55.749 314.554 278.670 287.928 357.397 338.625 354.399 2.767 14.808 53.057 304.196 338.280 75.887 332.509 286.694 255.199 74.225 102.305 148.774 253.566 223.376 188.765 191.129 191.465 176.104 207.337 -999.000 -999.000 -999.000 -999.000 -999.000 -999.000 -999.000 -999.000 -999.000 -999.000 -999.000 -999.000 -999.000 -999.000
-999.000 -999.000 -999.000 -999.000 -999.000 -999.000 -999.000 -999.000 -999.000 -999.000 -999.000 -999.000 -999.000 -999.000 -999.000 -999.000 -999.000 -999.000 -999.000 -999.000 -999.000 -999.000 -999.000 -999.000 -999.000 -999.000 -999.000 -999.000 -999.000 -999.000 -999.000 -999.000 -999.000 -999.000 -999.000 -999.000 -999.000 -999.000 186.246 168.678 155.684 139.912 127.020 125.310 130.283 118.408 116.848 112.629 113.331 208.675 209.055 130.914 316.496 315.343 340.743 281.792 278.187 316.492 128.636 106.928 270.887 266.042 305.251 294.022 299.627 5.631 96.682 117.943 172.999 136.267 138.602 111.359 84.110 342.128 309.654 306.269 295.420 285.728 15.642 70.735 341.032 300.452 276.705 161.909 136.261 127.727 170.554 127.959 102.814 33.452 332.151 332.571 330.008 358.637 331.720 326.116 16.358 254.987 271.731 266.636 302.110 328.165 36.199 49.083 237.470 254.090 211.984 227.477 219.577 14.650 358.552 359.191 19.578 4.739 342.047 344.076 337.896 33.349 61.143 77.545 75.269 296.319 326.320 98.135 51.203 79.403 55.134 15.990 312.397 233.180 278.945 266.814 278.270 286.475 301.744 348.255 45.196 14.952 304.829 307.313 335.130 328.259 301.773 353.805 344.570 13.435 79.399 320.191 251.065 234.515 61.602 64.126 335.785 352.908 189.075 155.739 152.720 154.244 169.235 172.128 168.913 181.271 183.929 180.992 194.840 200.138 206.495 169.512 117.477 149.409 241.404 238.548 220.301 198.660 188.014 205.093 260.200 204.625 320.066 99.249 131.125 144.764 262.619 298.845 7.000 95.817 188.859 186.534 201.736 204.708 239.401 249.110 130.930 145.167 173.485 162.703 151.373 182.592 224.267 232.564 122.015 168.206 153.505 136.056 142.866 92.819 115.331 74.299 314.429 319.624 334.634 31.164 21.105 329.371 315.521 314.992 310.764 304.036 43.873 98.837 262.265 64.097 10.975 52.733 44.187 71.343 294.520 230.036 155.762 140.189 163.489 152.235 150.309 165.323 177.445 167.289 185.014 229.885 27.059 14.869 5.571 357.910 325.945 324.560 347.662 334.454 349.347 23.064 50.151 59.936 74.865 264.731 238.871 228.680 222.249 252.634 302.893 7.626 32.934 83.595 112.839 65.322 273.787 314.617 72.763 84.437 87.391 88.842 249.078 247.021 263.488 274.991 273.156 284.593 97.576 109.397 112.481 248.195 279.934 264.864 289.234 66.478 74.107 98.761 3.803 300.556 343.594 58.529 139.242 238.161 129.571 53.059 95.107 58.961 275.668 291.139 307.693 21.561 68.993 309.314 260.340 220.788 42.387 105.559 316.021 263.528 259.754 59.059 42.859 44.763 349.534 305.329 294.161 71.567 128.180 113.421 107.004 231.220 275.212 281.417 0.178 316.471 356.117 99.898 37.101 78.487 294.820 357.970 82.908 275.742 237.584 174.891 122.749 107.548 182.902 242.487 204.008 223.069 248.432 276.825 240.136 233.622 251.943 -999.000 -999.000 -999.000 -999.000 -999.000 -999.000 -999.000 -999.000 -999.000 -999.000 -999.000 -999.000 -999.000
-999.000 -999.000 -999.000 -999.000 -999.000 -999.000 -999.000 -999.000 -999.000 -999.000 -999.000 -999.000 -999.000 -999.000 -999.000 -999.000 -999.000 -999.000 -999.000 -999.000 -999.000 -999.000 -999.000 -999.000 -999.000 -999.000 -999.000 -999.000 -999.000 -999.000 -999.000 -999.000 -999.000 -999.000 -999.000 -999.000 178.850 173.151 172.799 156.822 155.234 135.327 118.465 114.969 124.372 107.676 129.834 106.616 134.571 115.168 316.238 315.173 331.898 8.323 338.584 290.271 318.046 241.879 168.061 83.949 233.928 305.081 292.329 328.589 95.382 29.583 83.012 101.999 330.166 76.354 72.419 90.948 46.983 323.468 300.408 308.520 304.279 312.316 7.762 18.002 31.968 321.256 289.647 139.367 157.659 67.827 69.605 0.807 1.036 73.598 325.087 295.670 343.993 357.099 359.509 33.929 334.752 292.134 257.033 304.083 270.176 320.475 58.748 58.375 110.325 259.241 278.323 288.130 305.813 326.306 346.619 13.565 12.521 351.946 5.411 2.729 341.570 48.742 65.386 73.258 69.288 350.114 315.929 73.618 70.653 84.381 80.290 35.299 39.869 222.159 226.504 247.090 226.169 228.682 270.570 288.581 11.341 2.278 339.541 304.387 320.616 330.130 299.646 343.905 216.425 49.522 135.507 101.064 219.413 278.198 146.264 353.764 18.109 67.323 155.375 144.157 151.831 149.611 152.238 159.063 186.738 186.101 179.622 198.929 185.530 203.306 206.852 179.327 161.506 187.551 219.879 207.951 204.184 213.029 217.972 236.604 231.324 238.655 139.591 133.428 160.823 221.235 207.568 277.334 182.636 194.486 185.916 163.819 170.645 283.722 283.539 275.636 115.488 137.619 163.627 137.214 150.146 211.183 209.850 179.796 133.856 99.829 157.823 88.610 145.588 116.851 94.206 347.813 305.883 310.593 342.828 43.291 65.258 309.679 291.642 319.514 334.325 326.745 41.222 306.485 311.536 84.794 73.857 74.517 51.781 89.729 125.445 238.081 169.448 146.852 141.257 151.699 148.776 168.511 279.971 336.203 350.398 354.375 350.007 355.138 348.915 345.968 340.778 329.498 341.093 351.917 33.170 87.165 100.748 105.508 69.270 259.496 288.475 277.554 271.621 273.079 277.066 72.009 91.657 105.578 84.943 301.281 295.109 3.207 81.354 86.359 87.096 87.617 252.602 247.122 271.014 246.740 262.827 239.960 118.614 93.439 109.092 247.574 258.492 246.144 255.191 185.941 106.094 109.401 42.456 325.405 294.768 148.142 142.969 156.910 169.662 156.513 128.359 98.256 274.974 286.331 312.875 15.826 69.100 2.217 262.105 289.695 61.157 40.741 90.177 270.782 244.011 157.508 119.515 29.949 255.545 320.283 270.342 123.026 92.272 106.909 83.345 130.381 258.517 249.549 239.768 202.009 153.507 180.213 127.240 112.973 294.843 299.576 74.157 81.721 239.941 173.229 121.235 94.208 52.513 307.744 298.942 141.739 299.260 280.995 316.933 320.984 295.701 -999.000 -999.000 -999.000 -999.000 -999.000 -999.000 -999.000 -999.000 -999.000 -999.000 -999.000 -999.000 -999.000
-999.000 -999.000 -999.000 -999.000 -999.000 -999.000 -999.000 -999.000 -999.000 -999.000 -999.000 -999.000 -999.000 -999.000 -999.000 -999.000 -999.000 -999.000 -999.000 -999.000 -999.000 -999.000 -999.000 -999.000 -999.000 -999.000 -999.000 -999.000 -999.000 -999.000 -999.000 -999.000 -999.000 -999.000 -999.000 193.660 187.221 165.958 160.258 151.431 155.701 156.874 137.043 101.533 98.703 107.715 103.891 119.782 121.692 320.576 315.650 331.821 340.615 359.716 343.018 312.308 321.340 34.695 76.947 24.880 274.089 300.553 295.037 351.549 6.716 46.056 45.813 44.885 41.536 33.959 96.698 79.583 94.062 297.390 315.570 318.120 315.211 347.521 37.272 58.711 125.853 189.372 169.335 163.986 141.131 121.470 245.014 321.961 49.751 59.707 317.839 286.936 311.538 355.556 344.745 350.093 9.729 345.225 314.666 287.247 249.456 221.872 143.361 125.692 18.250 301.401 318.988 324.064 325.513 345.278 3.092 343.491 351.146 357.859 358.923 359.598 7.481 68.553 71.247 73.383 72.436 35.032 336.540 34.740 54.831 58.279 52.810 49.279 51.701 88.036 224.017 228.313 223.228 238.433 228.894 203.642 142.222 197.392 275.613 293.078 325.267 115.464 323.129 240.478 358.427 100.163 102.229 123.370 230.444 211.506 162.909 284.607 139.782 127.328 143.887 144.288 136.580 135.000 135.000 315.000 315.000 331.021 7.296 26.947 345.894 342.881 226.452 265.282 167.405 154.645 181.378 196.951 213.869 217.684 226.421 242.831 263.333 233.825 133.303 142.799 145.162 158.512 237.814 187.577 161.491 181.425 156.397 130.533 249.222 240.991 220.636 217.772 151.755 77.303 274.920 7.875 47.612 129.628 168.608 187.927 181.862 181.583 190.718 143.819 91.484 120.077 24.409 270.170 313.203 282.020 309.196 61.094 75.181 325.566 288.157 269.608 261.331 242.070 108.379 127.259 62.395 155.211 183.028 151.118 149.722 115.211 156.520 189.403 151.847 157.434 144.923 161.510 317.433 350.637 9.051 351.532 330.266 335.505 348.878 14.519 353.331 351.172 350.184 329.433 287.487 42.903 140.398 133.793 136.254 130.760 82.380 291.519 320.880 321.064 332.752 302.151 278.611 91.115 112.609 116.229 43.205 279.447 297.035 55.414 100.921 88.876 82.525 80.989 335.344 256.666 250.238 243.558 244.682 223.504 112.465 84.005 103.370 268.322 269.812 261.434 281.014 177.634 94.559 112.971 168.102 207.677 166.976 144.176 136.754 166.747 201.543 173.538 112.031 162.398 273.524 282.151 277.536 1.921 76.077 87.887 253.725 253.457 251.668 13.862 63.229 294.385 271.440 207.359 121.959 67.717 294.324 312.779 58.358 59.466 48.547 55.476 58.546 100.183 244.180 231.423 209.155 181.915 179.768 203.382 193.458 10.605 272.166 357.232 96.542 112.429 284.740 335.362 63.615 20.423 1.297 1.612 335.996 328.181 238.872 204.883 210.865 237.458 -999.000 -999.000 -999.000 -999.000 -999.000 -999.000 -999.000 -999.000 -999.000 -999.000 -999.000 -999.000 -999.000 -999.000
-999.000 -999.000 -999.000 -999.000 -999.000 -999.000 -999.000 -999.000 -999.000 -999.000 -999.000 -999.000 -999.000 -999.000 -999.000 -999.000 -999.000 -999.000 -999.000 -999.000 -999.000 -999.000 -999.000 -999.000 -999.000 -999.000 -999.000 -999.000 -999.000 -999.000 -999.000 -999.000 -999.000 -999.000 84.838 172.413 173.594 181.052 194.865 141.733 93.253 98.077 110.105 112.617 93.091 113.523 82.654 124.509 17.498 316.964 304.276 331.048 338.670 6.064 329.076 316.759 335.668 60.063 76.772 298.650 279.787 287.884 301.807 340.334 29.461 58.873 3.340 64.382 78.406 88.035 127.756 90.568 259.553 299.545 311.405 323.000 321.705 9.871 84.378 124.329 151.231 156.636 202.462 177.155 152.290 165.045 210.908 207.008 151.026 88.278 276.704 268.264 310.752 327.083 341.061 343.782 345.799 347.012 350.111 6.308 319.670 276.079 50.994 74.420 2.894 304.754 304.699 317.021 303.900 243.690 202.960 168.423 182.032 280.695 351.159 79.750 65.636 47.768 62.393 56.534 51.621 47.413 38.598 54.028 83.351 40.439 49.534 33.653 56.916 60.551 195.769 225.000 223.532 228.735 227.729 217.163 197.616 216.063 269.523 287.140 111.478 356.289 273.331 227.420 86.143 104.922 106.766 144.010 227.235 237.535 249.878 173.832 132.174 138.594 136.957 135.000 135.000 315.000 315.000 333.643 346.209 347.295 356.957 354.762 357.972 9.365 9.155 358.783 3.665 34.586 42.056 226.803 197.541 206.125 221.903 234.959 225.304 182.278 149.077 132.511 165.884 214.962 193.409 177.371 304.197 340.594 346.893 347.177 324.075 273.818 208.791 220.228 144.476 42.605 336.003 1.005 23.684 9.859 7.602 81.488 149.024 184.759 183.485 154.141 110.603 58.051 294.736 316.522 299.083 260.027 277.592 97.504 55.474 281.184 272.358 186.857 215.138 233.469 120.884 143.706 167.111 158.437 158.587 156.026 152.196 130.296 149.773 191.749 174.514 142.645 107.768 351.953 318.724 336.547 5.933 341.159 321.867 328.926 10.974 38.180 342.128 339.250 350.839 338.587 96.625 124.953 132.804 128.469 138.606 99.069 221.467 286.246 292.026 297.203 283.033 277.040 257.832 122.485 114.062 99.089 235.282 275.260 294.651 101.573 99.378 96.532 88.012 90.881 32.875 252.517 243.021 246.166 226.668 249.710 135.202 96.940 90.764 246.655 276.989 279.242 270.612 42.632 151.249 159.934 170.728 170.443 172.457 156.159 142.896 143.298 172.744 195.965 328.654 238.540 293.333 268.485 249.641 297.146 84.930 49.933 287.847 247.603 250.424 239.054 63.061 355.865 301.957 327.372 37.286 342.328 312.684 14.114 62.500 59.014 33.830 38.000 78.320 83.678 209.216 223.306 213.276 199.382 189.381 198.082 247.592 319.808 244.157 290.169 62.303 86.750 19.155 336.942 5.374 32.368 44.916 324.175 322.847 44.399 338.653 266.804 230.332 223.589 -999.000 -999.000 -999.000 -999.000 -999.000 -999.000 -999.000 -999.000 -999.000 -999.000 -999.000 -999.000 -999.000 -999.000
-999.000 -999.000 -999.000 -999.000 -999.000 -999.000 -999.000 -999.000 -999.000 -999.000 -999.000 -999.000 -999.000 -999.000 -999.000 -999.000 -999.000 -999.000 -999.000 -999.000 -999.000 -999.000 -999.000 -999.000 -999.000 -999.000 -999.000 -999.000 -999.000 -999.000 -999.000 -999.000 -999.000 135.355 135.688 209.188 245.568 328.833 33.371 43.618 26.773 17.747 65.819 105.776 85.015 97.607 76.336 67.111 339.087 290.490 274.943 293.962 287.030 2.504 304.638 296.825 340.678 88.046 71.057 265.883 295.381 270.311 297.589 313.319 127.141 22.071 114.469 80.816 102.053 147.187 76.881 162.854 313.044 306.364 304.811 317.990 313.441 162.021 122.444 125.495 115.297 312.039 344.631 5.816 10.561 345.782 330.426 1.204 32.110 59.098 309.821 296.813 322.713 11.770 0.135 328.597 336.233 338.445 355.688 37.568 359.356 320.103 350.291 18.748 48.030 292.774 235.369 217.476 211.132 184.831 165.750 186.862 218.075 212.696 192.668 251.109 105.089 52.847 45.619 25.757 40.057 38.415 41.202 49.269 70.958 30.478 28.364 56.554 34.158 55.002 47.412 225.000 225.000 222.538 223.176 202.960 203.901 234.447 277.577 222.735 241.961 277.451 219.442 347.949 137.512 149.030 119.902 142.180 256.680 239.859 132.864 178.925 147.793 137.692 135.000 135.000 315.000 315.000 333.263 354.442 342.433 317.043 4.864 356.824 0.645 13.562 356.187 354.152 4.310 16.331 25.369 32.247 18.070 236.717 215.089 222.645 208.938 175.966 146.251 184.660 224.607 181.913 165.640 326.128 298.573 331.585 354.155 2.958 0.519 11.243 1.068 301.211 333.636 341.272 347.060 355.462 18.837 34.839 47.906 18.922 345.447 170.240 150.234 133.596 132.468 330.913 287.797 338.046 307.946 273.286 312.832 72.878 50.159 329.182 298.142 95.144 268.503 235.868 114.891 129.070 135.531 153.211 160.565 160.136 150.087 155.170 196.894 16.609 29.728 1.116 34.181 343.256 291.164 322.724 2.862 347.676 326.157 328.832 36.743 24.932 299.709 2.635 22.164 17.964 74.181 117.985 113.730 125.601 120.297 0.407 289.612 296.050 273.061 265.119 235.585 259.062 226.181 99.310 100.971 52.074 277.722 289.654 58.306 100.123 90.526 88.519 83.467 83.067 69.208 269.066 227.053 239.344 225.718 229.301 175.510 140.053 153.608 217.390 256.325 271.459 195.252 90.268 149.004 133.474 168.324 162.133 162.538 165.042 130.332 162.603 245.903 325.140 334.104 326.200 339.721 276.502 268.537 157.285 66.128 9.934 348.704 1.295 321.315 289.469 58.221 12.209 311.988 341.147 2.906 354.536 320.107 2.506 77.636 106.825 90.454 133.968 103.888 92.033 260.360 256.974 210.979 173.410 196.802 219.260 222.898 184.005 200.559 246.032 88.927 51.830 297.548 325.236 10.150 9.773 31.820 329.248 326.718 75.332 61.216 300.900 296.079 -999.000 -999.000 -999.000 -999.000 -999.000 -999.000 -999.000 -999.000 -999.000 -999.000 -999.000 -999.000 -999.000 -999.000 -999.000
-999.000 -999.000 -999.000 -999.000 -999.000 -999.000 -999.000 -999.000 -999.000 -999.000 -999.000 -999.000 -999.000 -999.000 -999.000 -999.000 -999.000 -999.000 -999.000 -999.000 -999.000 -999.000 -999.000 -999.000 -999.000 -999.000 -999.000 -999.000 -999.000 -999.000 -999.000 164.861 154.379 142.394 128.857 5.717 359.546 8.284 353.635 29.541 98.972 82.513 93.535 69.224 72.530 74.372 77.698 37.814 315.144 257.176 272.279 253.837 172.555 324.532 276.603 283.304 83.093 90.517 69.923 276.082 283.870 264.140 258.179 234.785 79.695 83.426 123.003 93.966 135.648 126.423 44.256 299.442 311.110 311.863 283.025 178.001 186.909 148.821 129.646 141.356 347.930 333.707 351.581 0.088 351.974 355.927 8.135 13.421 46.483 4.647 291.039 320.316 20.663 324.428 299.524 312.292 340.707 9.900 30.392 28.225 325.134 317.297 346.269 26.037 51.962 323.711 258.309 144.439 181.562 239.108 255.414 227.195 310.887 277.318 321.987 340.877 16.542 11.100 353.736 8.591 36.342 22.769 20.613 32.205 43.823 58.699 62.364 77.111 32.674 30.345 36.597 45.000 45.000 225.000 225.003 190.004 188.812 220.349 223.662 238.042 272.050 186.315 291.698 156.620 127.157 133.760 119.690 235.601 144.026 150.328 188.672 162.814 141.647 134.999 135.000 315.000 318.810 324.340 335.412 354.619 334.088 310.540 353.430 359.297 349.655 3.378 18.785 12.123 2.571 32.444 37.975 12.705 14.916 25.852 252.923 214.446 218.477 200.984 228.548 325.610 356.838 351.012 1.319 344.479 291.020 278.029 307.159 348.894 8.428 356.871 2.790 337.603 334.214 46.314 305.023 288.258 106.854 70.303 50.226 33.204 25.918 20.976 34.449 76.555 82.514 273.303 292.517 13.560 346.075 268.581 295.496 349.872 37.158 48.394 318.564 130.385 195.871 234.478 139.887 120.543 151.142 149.660 158.157 158.041 149.856 340.453 351.060 350.239 350.595 0.253 37.514 341.467 272.380 308.559 340.389 342.337 325.694 343.763 57.423 32.763 308.406 357.183 105.192 99.867 107.172 111.745 112.003 125.734 73.762 305.417 309.496 319.062 6.941 266.053 280.035 271.883 160.010 90.920 100.238 33.037 269.460 296.156 89.080 110.015 100.068 90.125 89.011 68.508 336.819 317.782 324.128 308.387 204.901 220.604 188.014 159.715 183.467 209.163 244.561 247.485 196.462 147.264 137.477 154.832 156.773 132.222 166.567 177.583 176.244 258.660 325.079 332.857 311.181 345.505 26.095 312.324 276.812 281.052 23.043 69.348 5.806 346.845 317.611 322.042 64.316 305.220 258.723 322.390 266.911 82.432 186.215 149.725 151.129 137.383 147.236 133.670 132.252 119.463 337.352 351.541 334.959 350.322 264.687 226.522 207.926 201.487 220.572 195.413 162.581 148.622 210.570 232.969 58.344 103.530 353.835 304.845 17.535 95.715 71.842 272.626 290.293 -999.000 -999.000 -999.000 -999.000 -999.000 -999.000 -999.000 -999.000 -999.000 -999.000 -999.000 -999.000 -999.000 -999.000 -999.000
-999.000 -999.000 -999.000 -999.000 -999.000 -999.000 -999.000 -999.000 -999.000 -999.000 -999.000 -999.000 -999.000 -999.000 -999.000 -999.000 -999.000 -999.000 -999.000 -999.000 -999.000 -999.000 -999.000 -999.000 -999.000 -999.000 -999.000 -999.000 -999.000 40.165 88.321 122.494 39.528 66.905 18.097 17.153 13.910 253.613 154.638 118.747 115.056 119.250 84.696 73.999 85.154 82.932 90.453 129.867 299.864 279.376 281.844 279.508 1.097 307.668 284.886 286.461 97.565 74.087 76.373 318.554 284.576 279.130 290.434 297.267 45.804 132.141 74.423 99.071 121.722 70.425 264.304 294.101 313.117 292.376 353.702 149.969 184.104 336.333 70.796 3.734 324.249 326.205 351.003 340.527 340.642 6.987 13.695 40.569 69.487 37.312 250.779 241.730 222.876 245.522 289.581 312.954 330.265 35.630 21.574 87.230 328.410 304.845 335.382 58.438 69.256 353.909 313.933 10.982 345.591 305.949 7.251 356.952 317.864 317.344 353.168 345.836 28.644 45.608 12.784 27.401 23.868 4.187 20.452 27.548 15.684 34.819 51.303 58.621 133.780 42.336 21.366 30.895 45.000 45.000 225.009 225.005 204.840 207.320 232.975 257.386 204.794 230.495 159.071 152.063 162.871 124.520 132.677 189.636 191.815 165.426 155.298 145.143 134.999 315.004 315.000 331.664 323.185 321.465 350.295 23.359 328.875 306.489 336.889 326.768 353.205 38.407 1.469 1.237 31.597 42.933 74.981 37.730 7.896 1.027 25.483 50.681 307.124 303.167 330.033 346.646 347.927 353.212 9.088 356.430 272.327 220.959 233.990 230.929 347.828 13.959 10.352 332.895 310.969 54.472 120.714 218.973 234.648 61.918 50.209 49.602 39.622 72.187 81.932 68.851 320.466 291.255 311.281 32.901 323.168 288.280 294.837 45.499 49.882 129.260 112.910 142.472 172.901 202.884 166.341 155.406 116.361 106.172 137.478 353.776 335.419 325.895 337.941 354.912 15.805 37.786 53.174 160.012 283.195 274.326 313.481 352.768 327.156 15.155 79.423 5.119 320.484 64.894 76.823 108.799 114.491 118.335 103.276 120.526 0.852 292.145 308.186 359.014 44.957 296.073 266.978 252.495 114.355 107.775 107.600 281.398 255.806 74.857 123.283 129.259 127.974 111.851 43.868 58.115 54.696 325.986 318.226 345.649 6.056 45.679 140.338 142.080 220.939 237.356 225.611 233.374 188.375 154.149 143.787 157.714 177.726 163.201 172.612 214.642 315.441 312.578 322.850 338.248 325.007 3.920 12.442 301.907 335.673 323.490 26.823 3.792 285.117 129.203 98.979 202.027 127.903 190.129 228.468 221.514 184.013 142.177 181.483 176.075 136.060 125.440 148.202 149.563 124.838 308.883 318.494 24.638 352.138 331.680 52.703 29.858 236.355 196.337 177.962 209.324 180.739 176.689 225.468 256.109 178.323 34.556 200.219 166.611 67.631 103.284 114.669 286.072 291.317 -999.000 -999.000 -999.000 -999.000 -999.000 -999.000 -999.000 -999.000 -999.000 -999.000 -999.000 -999.000 -999.000 -999.000 -999.000
-999.000 -999.000 -999.000 -999.000 -999.000 -999.000 -999.000 -999.000 -999.000 -999.000 -999.000 -999.000 -999.000 -999.000 -999.000 -999.000 -999.000 -999.000 -999.000 -999.000 -999.000 -999.000 -999.000 -999.000 -999.000 -999.000 -999.000 23.803 5.440 27.987 86.343 5.270 11.459 19.836 0.884 285.536 291.932 70.877 85.634 87.839 89.139 98.043 85.682 102.218 121.588 99.220 115.778 156.693 290.163 290.642 295.714 303.106 358.277 307.212 287.014 268.603 100.533 80.349 257.779 308.086 294.237 303.256 303.085 5.443 106.169 121.013 103.916 121.036 74.577 353.660 289.420 301.141 300.062 30.277 45.198 130.063 332.875 352.597 4.889 356.367 317.891 322.766 346.650 357.998 334.363 359.919 32.413 36.953 57.628 105.405 240.905 223.340 262.245 283.250 298.118 303.060 345.220 66.961 33.885 331.324 336.351 288.864 223.454 114.164 76.197 270.651 316.104 58.269 18.406 295.503 304.604 341.435 294.242 333.036 62.900 195.541 205.468 164.127 161.337 216.539 187.652 70.779 15.901 15.155 12.854 18.709 28.659 37.200 42.224 55.375 58.464 19.892 5.231 35.294 44.983 44.899 225.000 225.000 263.256 240.808 231.959 179.412 156.723 174.909 151.468 113.478 175.371 214.290 167.925 143.677 137.447 135.139 315.002 318.328 328.792 335.621 322.996 321.828 11.041 28.214 301.505 292.669 321.817 352.901 3.287 55.161 49.226 117.515 128.604 103.540 95.142 312.550 4.754 60.464 50.598 27.038 304.831 299.878 290.191 314.926 339.951 321.489 358.435 34.292 21.940 273.915 251.404 263.118 312.923 341.331 343.941 5.029 322.787 65.502 109.337 186.500 199.477 194.270 33.824 57.696 79.061 112.734 99.731 82.164 295.977 288.870 300.543 41.188 13.578 293.621 284.432 168.349 101.870 139.044 139.222 127.533 162.420 192.252 162.855 153.786 133.230 119.110 21.427 344.336 326.229 311.917 302.775 325.852 13.211 69.043 64.231 138.785 298.819 246.841 272.833 270.469 10.743 63.245 73.459 123.475 52.682 126.907 121.940 118.201 123.232 129.707 10.380 91.147 4.458 289.869 291.421 353.283 54.148 346.817 294.063 260.373 93.165 115.237 95.064 216.248 281.246 217.429 99.465 93.928 85.758 30.209 19.901 34.844 38.274 313.415 293.221 347.388 30.315 8.574 350.011 99.875 232.615 187.876 206.315 212.272 185.263 164.075 162.616 174.276 172.891 168.681 156.974 8.497 285.473 285.032 307.537 304.400 280.823 349.779 92.262 289.118 275.236 236.656 139.394 159.740 226.310 210.853 139.020 171.847 152.675 161.645 255.490 217.557 279.505 132.461 105.457 144.586 170.704 124.575 121.052 95.583 342.571 319.137 306.427 93.773 339.484 315.396 78.620 66.173 251.098 199.429 218.579 209.155 153.359 170.290 216.216 229.509 190.979 217.467 232.233 191.452 113.043 83.623 166.092 284.232 234.652 225.105 -999.000 -999.000 -999.000 -999.000 -999.000 -999.000 -999.000 -999.000 -999.000 -999.000 -999.000 -999.000 -999.000 -999.000
-999.000 -999.000 -999.000 -999.000 -999.000 -999.000 -999.000 -999.000 -999.000 -999.000 -999.000 -999.000 -999.000 -999.000 -999.000 -999.000 -999.000 -999.000 -999.000 -999.000 -999.000 -999.000 -999.000 -999.000 -999.000 -999.000 167.573 95.852 132.732 124.820 102.926 345.801 244.325 357.662 123.965 4.376 14.793 45.461 59.322 80.362 93.233 84.995 101.981 117.631 115.784 100.417 109.630 326.610 301.885 277.060 301.958 277.246 354.661 297.181 276.261 152.799 86.008 135.640 325.959 331.820 275.816 299.622 287.952 57.842 81.393 117.561 109.365 135.167 37.879 293.573 312.276 307.911 281.202 69.932 95.293 336.473 299.898 330.497 3.207 296.319 310.979 325.061 341.437 334.226 347.004 66.707 90.851 106.881 110.349 172.771 281.736 299.791 320.460 307.774 299.862 280.764 355.385 82.217 39.132 343.455 309.622 278.458 69.666 105.812 74.982 274.064 292.945 36.110 164.420 311.273 278.684 10.914 268.512 279.706 176.027 134.430 112.490 166.797 164.165 233.720 260.644 264.188 80.143 63.949 74.557 32.607 36.641 23.464 6.539 47.111 42.730 21.019 49.459 3.141 2.977 44.983 45.000 225.000 225.000 221.083 196.910 171.566 161.048 179.807 167.490 156.008 202.292 183.743 139.192 132.818 318.302 323.198 329.421 324.464 321.799 339.054 315.635 315.483 19.298 17.047 15.211 305.252 283.522 223.394 159.872 128.192 151.849 146.412 135.850 145.487 353.313 301.163 39.886 82.288 57.219 64.552 80.025 280.216 236.332 230.391 213.700 231.123 297.581 45.367 31.181 5.035 292.625 283.632 247.967 127.617 143.510 201.062 222.418 102.799 81.245 83.827 179.826 211.858 185.053 132.370 117.206 90.725 90.655 50.809 281.821 275.721 293.049 7.751 37.789 295.292 227.249 137.511 139.749 115.331 152.795 145.088 156.845 176.991 188.923 190.815 123.717 88.844 55.451 333.795 253.208 258.650 271.337 290.821 57.166 55.797 38.016 31.226 244.088 255.702 233.429 222.490 208.078 111.596 97.837 145.967 172.411 155.652 147.511 139.390 161.355 14.114 346.793 36.059 21.379 276.566 260.569 313.023 63.274 3.649 297.611 300.430 102.704 97.899 359.227 272.240 336.114 71.080 49.384 36.258 7.013 347.340 355.720 30.869 52.667 301.980 286.641 298.366 56.147 31.071 24.818 27.712 0.328 83.572 170.354 201.257 189.177 159.777 169.818 207.292 307.732 343.605 356.291 350.178 241.033 231.739 216.552 200.883 193.980 183.922 221.697 271.199 126.370 170.053 163.440 177.690 250.424 36.982 64.466 334.894 55.692 69.744 151.814 212.046 201.418 167.247 213.939 119.204 107.937 117.720 37.288 315.722 320.896 304.383 287.780 65.827 237.697 305.654 69.142 85.189 348.690 283.124 318.531 331.220 0.803 3.046 310.996 211.580 172.541 187.452 230.638 161.732 139.873 107.248 76.792 256.977 237.110 226.423 -999.000 -999.000 -999.000 -999.000 -999.000 -999.000 -999.000 -999.000 -999.000 -999.000 -999.000 -999.000 -999.000 -999.000
-999.000 -999.000 -999.000 -999.000 -999.000 -999.000 -999.000 -999.000 -999.000 -999.000 -999.000 -999.000 -999.000 -999.000 -999.000 -999.000 -999.000 -999.000 -999.000 -999.000 -999.000 -999.000 -999.000 -999.000 -999.000 85.960 111.610 144.025 156.763 156.861 134.104 219.612 271.483 116.216 345.763 300.498 75.691 108.879 118.996 123.079 124.748 107.582 120.340 107.712 108.949 101.582 83.198 318.715 288.695 284.353 302.954 271.383 329.760 274.500 259.213 72.192 69.594 45.314 326.091 302.368 280.940 268.807 261.565 109.199 108.463 105.876 133.847 51.277 291.591 321.930 330.255 311.900 326.528 82.747 78.727 284.377 252.013 257.978 310.006 287.454 296.368 284.664 307.980 145.952 196.075 147.549 138.228 136.899 134.681 140.256 301.294 303.721 311.977 305.663 293.945 301.864 15.885 56.546 8.078 325.456 22.505 49.390 98.722 93.109 253.046 286.878 292.684 52.309 71.871 304.044 319.338 347.453 301.915 91.775 104.320 134.004 160.637 182.163 179.106 205.639 226.494 184.240 175.382 183.535 181.146 160.226 134.539 111.423 96.934 89.124 355.356 354.309 336.016 350.196 46.040 48.711 45.000 3.142 225.000 225.000 188.651 162.959 169.029 194.315 140.453 142.918 179.048 52.949 7.805 317.871 317.423 332.374 316.227 315.444 322.834 340.135 310.880 331.579 28.893 19.902 348.136 313.206 286.926 204.375 157.940 114.464 129.507 152.012 142.163 69.863 3.658 306.734 123.692 78.827 50.262 325.671 28.154 58.003 229.790 216.508 206.790 224.233 256.944 245.119 43.274 32.007 322.640 286.650 295.279 174.670 121.967 152.926 196.977 202.425 82.884 62.546 76.770 202.150 184.211 157.965 144.580 150.677 127.922 155.302 271.631 274.242 272.044 62.713 134.255 257.753 191.809 119.622 152.051 115.780 127.997 104.892 29.164 23.621 354.269 352.721 8.294 13.930 32.981 323.620 252.976 289.383 274.415 315.013 54.683 27.966 10.408 26.947 66.773 306.495 247.781 249.136 166.724 116.787 217.056 135.356 104.259 122.405 126.749 95.304 322.128 349.346 332.142 35.803 100.565 271.166 248.800 264.854 343.536 15.622 4.043 80.771 119.162 58.727 304.592 340.430 354.329 331.039 1.587 19.584 17.374 10.173 15.440 43.422 83.813 9.091 281.629 292.327 19.047 24.839 16.163 36.892 38.386 37.830 21.382 302.387 317.432 6.640 350.027 348.640 0.637 336.862 352.737 9.083 303.207 220.478 217.328 232.492 230.472 172.733 126.059 168.170 199.249 174.924 163.342 234.643 261.483 17.642 46.755 328.826 2.914 61.856 49.608 226.249 164.742 172.616 162.084 169.396 114.070 114.578 270.538 297.143 330.310 340.728 316.887 48.250 106.892 309.360 77.143 73.071 66.733 321.489 267.744 319.317 1.455 359.495 359.841 5.245 298.048 203.204 171.808 184.234 171.648 164.567 246.439 248.302 288.050 296.334 346.174 -999.000 -999.000 76.192 -999.000 -999.000 -999.000 -999.000 -999.000 -999.000 -999.000 -999.000 -999.000 -999.000
-999.000 -999.000 -999.000 -999.000 -999.000 -999.000 -999.000 -999.000 -999.000 -999.000 -999.000 -999.000 -999.000 -999.000 -999.000 -999.000 -999.000 -999.000 -999.000 -999.000 -999.000 -999.000 -999.000 -999.000 114.327 117.402 142.461 159.204 139.451 114.893 232.451 245.252 232.535 114.334 295.087 176.306 138.710 128.935 128.221 127.547 124.641 113.853 123.243 109.897 91.780 33.755 32.724 359.501 294.436 307.357 290.611 291.374 274.999 250.831 221.482 78.922 297.260 311.928 341.706 289.736 294.106 237.874 202.017 143.247 143.769 144.936 116.752 339.673 319.859 316.580 344.392 284.906 43.293 97.966 101.880 261.188 257.134 341.738 282.388 299.646 303.697 272.585 224.808 169.957 152.564 131.227 126.283 111.491 115.399 332.477 278.998 293.956 306.090 302.868 296.248 279.391 165.430 78.947 140.690 309.678 233.565 118.523 131.956 111.255 260.929 301.682 341.200 26.872 349.002 283.915 329.792 36.003 184.813 155.678 167.573 135.527 157.510 184.170 170.774 201.895 199.875 178.385 162.209 176.529 179.110 169.531 169.738 164.417 179.149 124.892 112.125 14.546 38.871 348.611 321.976 24.171 34.773 43.225 45.000 45.000 3.142 3.142 315.000 225.000 330.334 314.101 14.393 42.494 325.001 312.148 331.086 331.349 328.038 320.012 300.893 313.732 261.288 334.604 291.234 264.804 71.423 194.910 218.464 157.233 149.692 159.941 144.818 82.604 329.179 356.547 347.375 283.332 81.438 93.154 315.690 301.226 28.029 47.304 4.094 203.102 216.626 223.616 236.888 270.509 307.943 10.469 349.264 308.482 305.318 67.578 76.341 121.177 167.585 208.350 185.011 117.379 93.081 150.135 166.122 151.662 172.654 190.159 103.087 28.697 281.130 291.906 223.455 194.476 171.496 174.936 164.369 145.606 116.073 133.030 345.040 359.042 25.591 7.905 332.657 350.524 350.894 10.250 51.889 11.474 295.995 288.175 279.991 273.559 55.663 51.442 53.438 44.228 76.892 89.116 283.233 266.159 298.691 83.136 88.722 72.331 81.574 84.253 22.102 323.435 329.286 316.709 0.260 45.659 90.939 311.965 284.199 289.668 336.749 45.570 43.737 101.286 76.248 289.939 307.957 339.104 20.088 339.550 9.784 29.952 20.293 315.040 121.726 115.871 117.683 222.032 256.346 276.538 334.071 27.353 31.210 62.229 53.400 54.525 56.987 341.320 317.346 348.354 351.959 349.539 358.680 333.535 1.193 9.872 8.995 17.152 1.147 231.837 237.534 195.741 204.977 216.031 185.673 147.621 181.470 253.564 257.898 328.107 299.828 276.622 87.781 81.478 29.588 342.252 14.771 135.965 164.699 150.553 139.019 315.541 285.840 307.740 353.431 339.804 331.707 70.143 66.359 285.049 280.656 72.639 66.876 254.140 247.467 224.279 173.059 241.967 60.798 22.247 321.478 329.497 109.867 132.865 179.850 173.853 178.150 223.420 232.409 207.654 161.219 124.989 119.148 108.149 315.245 302.495 -999.000 -999.000 -999.000 -999.000 -999.000 -999.000 -999.000 -999.000
-999.000 -999.000 -999.000 -999.000 -999.000 -999.000 -999.000 -999.000 -999.000 -999.000 -999.000 -999.000 -999.000 -999.000 -999.000 -999.000 -999.000 -999.000 -999.000 -999.000 -999.000 -999.000 -999.000 132.017 130.064 142.167 132.604 136.559 104.128 314.944 294.379 333.179 22.567 21.564 179.753 150.107 131.666 128.034 129.330 132.924 128.174 133.633 107.303 111.687 96.266 117.182 116.642 294.974 273.698 306.326 268.466 270.097 238.033 245.975 210.107 212.005 280.625 334.479 345.343 288.860 270.078 286.390 169.399 165.003 131.180 86.162 59.471 314.980 291.009 313.078 280.087 23.371 117.067 83.729 44.845 291.600 325.660 337.207 294.725 305.922 297.620 280.723 231.763 140.442 112.294 103.955 95.061 63.923 46.682 342.422 287.245 291.220 291.558 261.511 228.199 191.336 174.345 171.314 180.723 224.806 207.113 93.664 92.749 17.612 294.185 304.766 330.473 17.384 23.059 322.683 200.794 131.694 167.023 160.040 153.547 158.463 154.690 184.047 203.667 179.963 171.550 178.840 173.129 177.102 180.664 167.769 171.232 120.825 16.683 339.367 337.693 6.100 38.207 33.860 1.162 3.329 9.520 6.554 33.143 35.764 8.944 327.420 325.003 346.767 329.661 333.470 27.784 59.630 355.661 300.729 313.696 330.819 326.294 263.785 218.278 194.507 207.066 204.975 177.732 164.387 188.556 176.309 143.463 171.473 181.691 164.028 0.139 342.252 333.634 347.360 1.794 3.197 49.367 88.923 314.309 299.617 17.931 47.890 37.429 355.936 244.952 236.632 250.526 254.974 303.987 356.431 5.379 334.711 291.276 348.854 59.669 54.289 20.198 178.229 173.008 163.310 146.347 123.670 205.225 320.332 29.505 22.706 40.812 342.088 284.240 267.000 245.401 234.192 235.923 105.245 88.649 155.464 232.952 314.754 1.626 359.603 29.238 358.142 295.544 350.670 355.723 26.415 67.626 18.222 303.221 268.266 306.375 250.874 110.335 135.184 198.166 106.240 67.179 62.637 307.704 278.517 265.763 89.212 145.070 139.564 134.798 103.628 342.112 307.165 337.027 310.472 1.696 63.955 66.369 325.952 278.386 272.044 264.402 209.688 96.109 98.540 49.558 294.747 295.462 6.881 31.253 313.725 329.036 116.429 122.579 125.787 127.622 131.121 101.839 215.122 268.705 267.281 278.106 119.069 51.393 63.604 55.813 58.875 61.422 322.885 298.253 330.227 340.169 341.241 12.341 341.439 353.715 25.465 10.474 48.151 37.181 234.234 206.023 203.179 221.492 278.489 358.085 7.562 352.608 295.027 284.262 323.528 322.450 318.177 45.480 63.840 37.429 20.265 57.821 48.712 97.740 116.992 106.250 299.304 302.951 301.528 328.055 343.730 352.941 49.507 62.084 316.369 342.434 56.557 59.184 47.829 211.624 225.998 181.176 -999.000 69.856 25.435 305.376 348.302 55.483 45.714 89.330 119.865 184.889 215.504 202.110 194.500 157.828 131.208 120.922 103.158 296.868 303.486 303.029 -999.000 -999.000 -999.000 -999.000 -999.000 -999.000 -999.000
-999.000 -999.000 -999.000 -999.000 -999.000 -999.000 -999.000 -999.000 -999.000 -999.000 -999.000 -999.000 -999.000 -999.000 -999.000 -999.000 -999.000 -999.000 -999.000 -999.000 -999.000 -999.000 142.152 132.274 129.365 133.073 137.970 159.752 315.000 309.419 336.621 355.017 55.821 101.562 170.978 127.150 128.249 127.468 131.383 133.917 126.609 116.750 76.533 99.326 75.893 144.152 131.880 276.627 256.582 313.461 217.721 246.801 218.898 234.811 239.775 281.104 288.329 330.396 287.805 300.396 288.384 47.542 96.945 90.483 106.156 341.754 247.040 281.776 254.374 282.316 244.959 62.121 47.643 339.024 350.131 350.653 6.609 278.722 254.158 232.723 219.496 245.336 253.058 73.056 81.404 87.678 80.962 105.953 78.649 274.810 279.059 276.480 251.757 152.497 162.398 182.786 193.931 193.769 255.591 264.646 332.050 56.690 20.988 327.254 327.091 305.720 18.682 1.341 339.870 60.760 159.644 161.208 122.824 138.773 162.460 170.248 64.814 20.926 339.436 335.280 0.867 22.774 14.547 21.992 61.580 17.015 327.144 338.187 344.430 336.137 334.183 0.670 31.509 47.319 21.615 310.128 352.005 359.970 11.300 14.435 2.542 353.621 343.067 334.689 348.911 7.746 0.302 79.454 42.043 259.211 247.259 210.763 189.917 180.895 190.339 188.716 197.897 190.974 186.253 182.935 169.573 173.153 159.720 162.009 185.462 289.879 316.085 347.654 325.418 353.422 64.494 36.832 66.922 73.264 283.028 278.939 306.749 44.627 34.063 26.121 33.474 303.995 272.251 246.363 283.180 268.056 350.508 2.912 306.667 345.326 43.477 52.399 61.508 84.504 237.277 167.614 132.223 22.505 12.727 5.327 3.908 20.578 56.492 167.555 243.936 237.537 238.024 315.103 329.410 38.803 52.046 49.019 44.425 329.100 328.593 26.805 36.384 309.334 312.127 343.274 359.087 69.253 86.508 259.267 271.611 312.393 250.492 285.320 186.591 74.118 26.152 1.605 14.997 25.360 349.469 293.666 218.108 124.217 106.442 113.162 113.192 53.553 298.839 324.944 282.754 338.487 88.366 77.164 88.967 277.889 267.425 290.647 268.659 86.466 91.201 89.944 295.412 297.069 274.573 11.125 83.181 265.461 112.716 122.334 123.745 128.185 122.682 125.329 102.473 279.164 289.143 294.653 307.700 33.305 53.427 39.038 60.507 60.280 69.708 277.154 267.797 289.539 275.332 349.407 31.008 347.597 0.309 30.583 1.037 57.154 61.053 47.899 262.333 286.766 306.870 317.534 339.208 1.573 32.938 319.004 279.555 306.364 347.316 40.821 70.943 63.379 13.952 96.834 111.940 102.644 98.070 63.467 317.056 284.733 290.369 242.600 19.577 199.193 266.256 50.541 23.561 330.896 319.341 65.643 33.563 55.272 60.107 -999.000 -999.000 -999.000 -999.000 312.499 310.199 304.772 18.890 43.466 31.648 28.911 31.724 190.284 191.793 184.762 174.299 138.779 108.739 330.713 298.734 305.948 299.358 -999.000 -999.000 -999.000 -999.000 -999.000 -999.000 -999.000
-999.000 -999.000 -999.000 -999.000 -999.000 -999.000 -999.000 -999.000 -999.000 -999.000 -999.000 -999.000 -999.000 -999.000 -999.000 -999.000 -999.000 -999.000 -999.000 -999.000 -999.000 134.530 134.318 120.625 130.566 133.863 175.819 315.000 321.269 332.353 332.821 357.916 99.304 87.093 118.135 118.063 123.213 128.348 127.904 125.163 116.243 110.158 162.496 54.473 66.421 57.875 349.924 268.187 286.930 269.160 190.792 248.562 259.653 265.006 295.966 297.358 301.440 327.911 331.847 314.569 329.214 55.809 68.866 91.816 65.881 340.738 294.421 217.294 256.923 236.553 279.533 105.161 32.230 337.183 324.780 359.266 32.446 317.219 239.635 218.085 216.047 233.065 241.525 115.850 110.722 114.071 122.290 179.694 99.766 215.556 270.205 275.587 243.123 100.380 155.413 268.663 278.700 346.414 333.231 306.263 311.927 14.555 16.238 346.096 310.989 286.826 314.279 121.799 98.767 173.003 99.575 119.692 123.336 93.682 325.791 344.184 341.482 4.841 356.464 345.364 2.000 11.224 8.975 7.995 31.849 5.386 317.933 326.570 335.045 339.118 331.392 26.388 59.096 72.611 39.058 289.026 299.720 348.361 351.159 357.035 4.848 0.511 337.180 335.311 337.758 356.887 2.393 14.272 32.067 265.999 213.596 184.030 168.754 181.163 191.452 188.466 184.040 188.800 190.588 190.200 188.069 162.448 157.776 180.139 263.781 286.494 312.089 329.221 341.978 4.706 30.356 42.407 59.433 38.737 321.493 268.122 299.848 340.241 44.814 38.490 50.323 336.129 265.613 258.342 236.813 252.378 283.986 112.779 300.015 251.577 105.094 93.029 88.362 36.613 16.501 354.041 355.430 10.860 358.060 357.832 39.424 111.084 97.038 189.140 236.405 185.102 234.606 259.606 278.048 66.208 43.294 18.732 6.949 310.632 282.321 76.843 64.562 282.981 305.892 33.583 91.464 115.866 86.296 251.617 292.206 329.127 330.872 325.244 7.400 37.331 358.814 337.401 358.348 31.498 34.075 304.610 303.776 105.067 55.779 28.857 57.007 30.989 277.595 307.646 332.310 12.517 82.370 102.060 100.160 229.519 283.681 294.514 291.201 26.708 93.853 92.238 310.142 278.876 287.103 77.856 135.721 156.923 137.757 138.707 114.000 101.474 114.964 94.926 348.857 292.879 295.261 317.259 314.090 330.753 34.492 42.468 61.363 70.965 82.999 171.290 255.649 249.980 242.147 291.242 3.455 5.631 6.025 38.184 328.173 41.578 43.211 45.377 31.088 289.709 263.431 256.877 251.049 295.816 93.207 330.496 271.755 256.681 162.327 161.422 162.107 141.378 140.811 142.013 141.581 142.367 142.953 323.014 288.799 251.150 222.755 213.952 215.150 194.693 229.719 280.975 336.849 -999.000 -999.000 -999.000 -999.000 -999.000 -999.000 -999.000 -999.000 -999.000 -999.000 124.105 212.293 234.733 147.904 44.220 24.347 33.722 37.875 37.892 126.542 176.885 140.266 137.185 14.571 303.787 305.413 306.568 291.628 -999.000 -999.000 -999.000 -999.000 -999.000 -999.000 -999.000
-999.000 -999.000 -999.000 -999.000 -999.000 -999.000 -999.000 -999.000 -999.000 -999.000 -999.000 -999.000 -999.000 -999.000 -999.000 -999.000 -999.000 -999.000 -999.000 -999.000 129.139 131.536 127.471 129.916 138.700 135.000 315.000 322.774 318.618 325.447 5.366 6.541 88.857 91.166 105.828 124.728 127.574 124.790 122.281 118.859 114.505 68.715 173.944 16.568 107.859 67.126 251.175 265.326 287.830 232.734 329.036 294.444 285.215 302.537 304.785 304.849 327.319 324.130 327.952 297.900 328.888 72.496 75.890 47.106 56.920 346.791 333.797 359.672 244.934 254.576 242.291 0.291 323.982 306.923 329.078 37.795 39.665 43.025 345.227 265.543 230.691 213.599 183.554 164.414 148.544 122.199 98.267 346.057 71.487 309.121 279.096 270.755 112.812 96.032 165.121 302.330 297.337 327.246 317.111 292.449 295.821 11.332 102.276 3.065 207.331 299.374 156.239 136.950 158.959 153.767 149.504 146.731 142.297 302.120 338.016 324.139 337.877 357.884 346.575 346.783 12.619 23.298 45.416 57.065 50.983 317.154 304.902 314.262 323.773 307.993 15.154 125.075 126.797 101.943 111.717 271.791 279.936 292.181 45.220 17.823 321.954 338.229 336.686 310.976 43.062 33.201 295.097 5.496 32.317 22.313 18.226 304.908 248.658 322.148 18.642 6.476 261.453 195.949 134.311 170.913 198.370 177.893 165.982 220.590 261.678 262.956 273.030 270.033 311.039 40.416 58.251 57.287 36.387 37.776 37.679 336.832 278.172 306.719 85.410 40.764 73.916 80.526 275.249 251.244 232.274 251.270 238.277 165.383 197.991 238.588 244.432 93.581 55.991 27.521 17.636 2.429 351.348 21.623 113.445 172.464 145.606 129.921 120.693 295.840 316.248 321.263 206.039 241.201 254.147 99.675 74.910 28.994 130.529 287.277 269.764 85.803 48.949 281.271 318.793 117.909 106.490 94.176 112.315 330.634 308.559 336.540 335.974 312.416 17.484 71.490 260.424 228.921 162.398 130.331 114.187 203.417 297.184 85.230 71.913 58.445 74.179 334.412 286.956 291.069 347.042 122.022 119.857 116.925 98.341 250.056 275.608 244.111 248.549 118.466 95.853 89.243 288.091 264.693 270.896 121.852 109.456 128.734 120.750 108.143 66.131 75.454 83.774 76.695 275.367 276.635 282.473 293.275 291.505 27.446 88.731 107.175 104.922 106.769 91.596 111.093 257.999 243.360 247.348 227.561 203.456 218.028 328.709 58.346 342.500 13.453 34.320 51.995 23.869 309.630 290.706 308.406 319.225 3.468 35.751 328.511 291.042 272.685 125.112 126.785 153.122 174.637 144.320 138.104 146.423 158.205 320.106 333.299 358.611 331.613 254.143 96.468 142.707 242.869 253.481 266.724 -999.000 -999.000 -999.000 -999.000 -999.000 -999.000 -999.000 -999.000 -999.000 -999.000 -999.000 159.778 210.548 181.748 196.215 240.317 11.223 39.541 38.778 35.163 23.723 34.716 7.150 10.579 351.138 309.240 312.366 312.688 286.524 -999.000 -999.000 -999.000 -999.000 -999.000 -999.000 -999.000
-999.000 -999.000 -999.000 -999.000 -999.000 -999.000 -999.000 -999.000 -999.000 -999.000 -999.000 -999.000 -999.000 -999.000 -999.000 -999.000 -999.000 -999.000 -999.000 139.204 134.946 136.996 129.283 128.897 125.438 315.414 326.042 312.251 312.551 314.178 10.211 117.308 87.780 118.075 117.193 131.094 129.250 123.232 103.439 96.653 83.100 40.001 288.572 102.302 92.074 94.659 223.615 283.619 267.260 260.405 1.528 297.153 288.010 282.220 305.843 290.644 321.085 304.995 324.573 296.053 327.135 76.598 75.627 41.870 52.407 351.266 88.299 69.718 250.144 268.037 260.716 344.977 328.709 307.347 313.461 15.228 85.685 40.192 29.674 16.509 222.274 209.391 195.940 144.979 115.840 91.302 15.599 35.612 84.158 275.259 267.248 234.793 144.939 139.317 177.656 263.307 273.740 228.771 340.711 271.255 332.601 106.521 119.640 156.642 213.718 220.422 185.681 122.636 142.608 143.361 133.938 152.423 337.780 332.315 338.341 342.561 315.438 357.971 21.978 328.138 178.826 93.180 119.076 106.523 99.719 287.244 296.439 298.080 296.459 103.804 109.693 138.751 132.209 118.179 137.681 275.033 302.070 315.153 320.246 13.721 27.165 317.543 286.033 358.969 62.517 328.490 298.734 7.494 60.651 66.014 44.461 338.037 328.464 346.863 4.417 4.765 12.056 21.819 17.264 211.579 188.382 185.273 291.265 307.731 307.648 282.373 254.584 235.165 221.811 137.944 98.778 107.073 87.683 88.583 74.911 31.292 292.561 277.468 61.976 104.110 77.553 137.035 270.959 234.341 234.285 245.052 225.490 157.861 175.082 263.030 173.661 79.793 67.630 85.636 10.535 179.690 194.594 156.181 153.184 149.166 161.507 131.303 16.704 318.888 343.246 2.841 353.789 280.798 239.738 233.229 179.125 5.539 111.032 317.457 269.661 79.600 13.723 290.290 301.978 70.428 99.783 38.904 168.165 327.565 270.903 291.170 329.899 335.875 107.299 123.127 199.091 220.645 189.542 135.280 115.662 242.804 315.354 23.704 53.211 85.336 58.506 288.052 299.063 269.865 101.903 132.038 127.298 114.647 122.076 289.691 279.142 257.822 279.370 136.223 80.079 78.772 241.152 260.430 251.312 117.987 44.622 25.829 36.881 1.949 56.111 75.394 78.707 84.176 286.403 271.801 278.730 285.523 244.323 87.382 131.098 139.326 117.348 92.612 71.637 75.703 233.568 256.893 249.553 227.670 242.195 204.734 282.797 98.902 335.338 31.200 65.162 65.122 82.896 351.862 295.947 280.476 291.230 285.512 349.968 80.479 342.372 166.112 154.557 172.261 175.732 129.949 126.882 135.940 132.337 315.608 320.732 314.314 18.105 39.381 335.406 317.581 339.573 12.437 285.307 271.959 -999.000 -999.000 -999.000 -999.000 -999.000 -999.000 -999.000 -999.000 -999.000 -999.000 -999.000 286.876 327.934 327.579 91.031 135.839 236.213 328.168 39.306 46.951 58.860 20.311 342.411 355.726 6.917 314.589 290.758 280.378 307.206 -999.000 -999.000 -999.000 -999.000 -999.000 -999.000 -999.000
-999.000 -999.000 -999.000 -999.000 -999.000 -999.000 -999.000 -999.000 -999.000 -999.000 -999.000 -999.000 -999.000 -999.000 -999.000 -999.000 -999.000 -999.000 140.452 134.807 131.793 132.934 127.591 123.053 316.414 323.394 315.702 312.171 299.700 327.091 67.498 111.654 106.175 119.952 124.648 128.475 126.365 119.509 113.917 99.296 101.948 264.738 287.071 93.507 93.259 95.238 264.855 275.960 272.818 278.492 8.509 283.067 304.174 293.326 298.795 304.700 300.748 304.495 312.214 295.587 232.524 82.622 91.451 116.588 33.127 213.795 83.227 118.469 264.978 274.010 270.459 310.363 241.611 285.310 245.948 71.237 99.233 66.129 0.552 320.568 352.228 5.067 31.433 57.781 41.870 63.640 112.720 124.044 96.214 247.112 239.174 235.926 157.619 140.350 302.969 221.604 229.651 234.137 238.551 216.356 162.889 168.905 153.697 176.997 203.557 236.317 255.764 81.903 93.682 88.431 88.763 326.480 301.547 311.336 322.287 330.476 331.942 114.380 180.526 187.532 158.597 152.116 147.529 124.740 0.551 298.440 303.465 302.928 254.740 106.146 118.318 140.368 127.560 128.123 150.791 302.884 293.472 310.716 14.953 13.121 312.845 290.858 311.520 33.049 61.497 308.816 302.396 34.102 87.381 89.391 97.523 281.695 281.577 303.460 353.801 23.540 20.930 54.947 60.628 10.717 336.429 10.542 334.412 308.593 325.681 336.306 306.873 279.286 236.462 177.893 106.753 93.171 116.043 120.898 94.222 341.396 301.301 287.721 84.074 125.363 72.627 103.544 265.365 273.410 233.694 290.899 230.878 108.422 219.919 246.493 241.928 106.383 128.011 177.656 156.157 148.086 152.763 149.234 158.461 202.157 88.399 46.405 323.058 302.070 328.843 1.162 32.311 38.395 281.937 256.468 121.218 17.328 51.800 315.201 271.146 70.874 329.768 292.461 82.506 105.313 94.679 281.900 345.306 170.686 262.451 227.061 207.908 210.874 135.665 128.288 223.511 217.671 75.341 74.560 77.562 291.713 293.622 24.744 62.936 57.628 12.725 295.301 305.037 257.864 103.530 120.604 106.493 67.686 16.100 304.199 296.953 260.532 323.809 48.677 74.897 75.612 318.029 271.178 269.805 84.051 97.754 52.351 33.209 39.461 46.387 72.209 86.800 68.859 291.652 285.274 288.093 302.142 274.193 128.803 80.958 65.645 46.118 48.698 60.793 63.915 206.726 252.208 248.547 227.389 192.305 197.279 203.065 217.860 241.409 121.043 110.704 82.920 110.944 214.381 214.420 205.503 208.369 211.611 182.871 187.694 197.389 175.549 151.161 125.346 135.600 157.311 140.117 149.207 317.601 326.617 332.761 305.416 35.757 98.086 299.489 219.362 332.548 306.704 317.416 284.386 -999.000 -999.000 -999.000 -999.000 -999.000 -999.000 -999.000 -999.000 -999.000 -999.000 -999.000 299.155 327.103 13.029 28.830 354.998 205.873 165.315 142.878 96.148 77.642 0.203 334.439 1.121 26.580 307.875 250.215 312.479 274.413 -999.000 -999.000 -999.000 -999.000 -999.000 -999.000 -999.000
-999.000 -999.000 -999.000 -999.000 -999.000 -999.000 -999.000 -999.000 -999.000 -999.000 -999.000 -999.000 -999.000 -999.000 -999.000 -999.000 -999.000 141.771 143.020 136.773 143.422 140.535 58.306 317.812 325.724 319.718 309.328 301.328 318.271 19.100 87.620 95.179 111.647 100.777 124.067 118.999 107.818 93.932 87.326 97.172 89.295 153.268 173.457 88.497 112.843 72.927 243.786 270.622 269.913 308.563 23.916 299.562 291.263 314.197 292.663 303.333 268.716 290.651 275.663 270.716 79.695 96.598 98.516 122.705 50.550 168.697 70.765 102.550 289.438 264.771 281.760 242.969 258.369 239.646 108.997 159.379 95.491 159.495 323.480 324.843 355.699 18.424 16.277 16.374 51.783 72.572 112.978 141.799 107.085 265.409 260.764 299.239 6.802 345.370 340.031 320.729 220.121 165.679 190.494 200.780 186.842 183.872 171.708 85.427 147.109 284.235 238.340 61.499 95.347 80.724 72.440 282.973 285.632 308.939 346.746 31.193 22.695 235.034 144.207 127.828 77.429 179.020 51.154 61.007 346.193 294.453 302.234 288.969 86.270 104.549 133.852 119.612 129.456 359.242 316.688 318.408 275.402 271.473 299.607 347.996 357.712 331.270 344.845 326.840 347.585 337.400 323.639 87.316 85.031 88.670 87.749 253.159 241.460 270.641 224.619 62.226 58.411 53.695 23.211 358.986 344.010 0.143 342.531 286.988 286.102 339.961 306.949 322.768 210.282 100.653 134.779 102.002 61.363 31.943 53.597 348.872 268.673 351.858 101.222 58.040 38.594 39.669 54.758 311.297 271.157 289.574 306.251 80.594 265.816 222.907 128.061 135.383 143.080 121.233 150.465 137.481 145.387 180.458 23.839 8.851 20.954 11.137 290.511 290.237 309.751 46.263 53.651 61.164 325.228 273.026 281.235 292.088 53.748 2.265 287.771 41.361 247.921 295.990 141.729 119.286 91.557 264.263 358.151 106.905 271.029 221.239 203.138 202.525 118.258 108.005 212.976 225.718 205.483 143.806 138.887 230.740 242.722 276.973 71.268 59.053 9.199 308.068 302.890 79.598 117.238 107.123 53.591 356.511 358.857 2.332 294.794 258.722 327.120 71.797 86.703 0.146 330.187 317.860 333.185 66.081 117.146 144.769 167.497 183.579 103.510 95.849 83.810 38.420 277.964 288.904 298.005 287.012 277.695 76.901 56.937 6.494 31.817 62.539 70.280 42.347 34.589 253.857 240.820 225.746 209.073 232.257 207.396 183.083 231.225 266.116 65.194 75.949 37.265 344.278 356.787 351.468 232.972 233.491 221.140 164.318 109.695 21.058 16.317 97.794 102.247 120.598 138.208 317.527 316.222 333.320 340.895 311.511 27.286 91.172 312.499 229.377 13.727 303.045 356.625 -999.000 -999.000 -999.000 -999.000 -999.000 -999.000 -999.000 -999.000 -999.000 -999.000 -999.000 -999.000 -999.000 -999.000 -999.000 62.330 32.993 284.925 269.397 172.992 62.856 53.758 5.255 313.951 12.345 54.530 323.351 278.864 325.844 267.065 -999.000 -999.000 -999.000 -999.000 -999.000 -999.000 -999.000
-999.000 -999.000 -999.000 -999.000 -999.000 -999.000 -999.000 -999.000 -999.000 -999.000 -999.000 -999.000 -999.000 -999.000 -999.000 154.178 153.242 138.649 135.691 138.984 131.104 1.485 317.779 326.005 330.293 325.104 308.063 316.020 312.451 95.065 106.157 103.482 99.285 97.546 118.404 97.473 27.237 82.642 69.639 81.888 86.120 144.476 163.236 135.688 99.414 130.094 263.155 260.843 261.521 276.234 220.833 284.201 269.223 277.736 283.529 257.060 253.806 281.922 260.323 301.186 33.232 84.363 77.501 85.482 357.187 183.434 78.830 108.956 280.799 260.804 290.290 253.235 301.235 172.054 317.633 180.936 123.788 314.724 311.728 326.267 354.471 18.772 12.581 12.206 45.973 59.048 74.169 122.932 112.627 305.194 306.612 333.565 6.042 19.203 334.238 355.808 36.524 305.484 238.162 161.093 294.060 38.316 5.885 344.648 32.238 256.013 250.184 153.205 91.467 86.246 16.693 277.381 297.557 291.713 328.120 22.758 44.560 47.374 60.652 45.627 343.156 7.030 5.642 12.141 333.649 290.562 303.936 249.119 103.241 119.615 129.265 119.188 91.600 305.836 329.938 15.828 260.095 235.250 275.125 287.312 359.815 8.735 301.973 330.207 9.494 335.921 7.427 47.455 81.700 64.505 77.243 7.958 260.477 277.612 269.195 71.215 59.276 17.226 353.401 340.715 344.838 31.151 26.380 250.535 234.373 231.330 293.868 319.893 32.031 94.393 115.799 153.671 25.444 20.636 359.519 347.284 345.797 40.858 74.969 56.746 34.337 52.774 66.188 275.170 265.242 240.212 145.111 120.742 246.457 218.915 148.974 138.295 140.446 164.103 167.820 137.522 83.516 329.177 336.677 331.889 34.119 5.419 249.763 305.791 249.541 213.648 107.315 90.283 142.926 273.002 307.837 280.310 46.470 6.524 299.205 64.563 188.610 159.744 135.597 112.021 308.558 301.151 25.501 46.586 290.508 295.860 265.119 210.357 107.839 111.639 202.169 233.049 165.775 153.300 168.620 206.744 243.976 270.247 57.502 34.599 346.066 315.662 102.134 124.392 134.396 75.954 344.903 336.190 15.073 58.054 251.430 279.783 248.344 29.684 54.823 47.105 350.214 286.290 297.594 187.387 78.062 124.549 143.123 163.398 179.329 123.461 84.236 84.286 276.878 261.769 256.507 209.426 242.559 2.392 79.361 39.952 76.244 92.094 67.249 11.235 7.110 36.291 286.032 259.803 245.416 283.599 305.955 251.688 260.303 274.762 88.870 62.906 19.608 342.209 8.661 359.037 324.403 307.812 98.521 146.997 263.421 283.421 91.814 98.074 98.563 316.818 5.702 318.444 285.220 316.853 348.502 341.281 13.737 67.704 4.046 325.262 302.062 265.284 -999.000 -999.000 -999.000 -999.000 -999.000 -999.000 -999.000 -999.000 -999.000 -999.000 -999.000 -999.000 -999.000 -999.000 -999.000 -999.000 81.263 43.464 44.582 356.296 344.248 344.748 5.348 353.618 315.494 30.577 72.754 325.330 303.884 12.608 273.484 -999.000 -999.000 -999.000 -999.000 -999.000 -999.000 -999.000
-999.000 -999.000 -999.000 -999.000 -999.000 -999.000 -999.000 -999.000 -999.000 -999.000 -999.000 -999.000 -999.000 -999.000 138.889 140.656 140.300 130.416 112.218 101.205 352.100 322.875 311.692 321.134 335.323 318.868 305.537 298.318 270.643 132.493 111.191 117.415 103.566 121.945 115.324 92.612 318.752 90.876 90.089 105.010 103.975 115.783 120.412 139.042 120.573 145.790 239.827 257.164 256.577 215.308 226.928 265.945 259.308 270.208 280.249 287.692 321.090 319.507 268.600 302.397 61.225 79.015 61.319 83.748 5.916 116.738 79.246 89.945 262.430 268.041 271.739 251.114 193.858 210.852 185.970 135.411 269.989 310.874 307.092 330.979 26.186 47.529 342.593 348.179 39.302 51.658 52.979 44.629 4.237 311.424 302.776 320.240 353.130 58.673 313.958 164.068 30.647 336.260 352.990 10.038 346.554 317.587 339.697 53.961 49.226 251.217 292.613 140.161 80.390 84.849 97.697 279.510 271.635 261.263 333.584 66.739 89.147 85.671 150.246 61.213 259.040 324.162 40.289 48.741 321.309 286.001 286.162 111.005 113.183 125.842 103.419 120.825 310.368 297.102 330.541 28.449 50.775 266.428 237.620 240.482 250.976 47.304 22.111 297.398 296.616 89.726 48.440 49.389 56.610 54.090 89.480 13.815 282.260 268.120 281.239 93.810 27.809 342.106 330.663 346.025 3.614 27.861 68.692 289.670 265.667 229.999 260.793 258.120 35.508 76.978 127.411 157.525 147.017 244.060 359.630 282.052 7.344 31.866 41.005 54.344 32.474 56.041 74.449 40.420 273.999 237.118 127.718 147.615 227.668 204.842 134.336 133.484 143.270 128.846 51.943 83.313 9.414 298.442 327.156 12.460 64.617 14.575 285.398 288.579 293.428 25.824 81.707 55.344 1.910 302.782 327.980 257.017 36.271 190.205 344.265 36.677 6.905 106.381 97.807 54.752 288.932 306.828 2.558 37.597 9.482 357.100 39.318 244.016 135.460 108.796 148.507 247.910 200.377 146.135 203.082 248.456 296.112 232.023 51.541 129.505 145.354 221.930 172.702 124.814 98.655 350.488 313.131 349.021 70.484 50.923 251.093 298.003 252.848 37.251 31.037 312.968 247.923 164.383 168.053 160.261 125.986 129.243 172.017 185.879 179.080 169.714 87.273 147.485 291.455 267.579 251.597 255.440 287.751 46.788 68.286 81.080 103.037 100.385 29.639 333.060 15.377 46.221 36.503 304.253 293.146 279.620 334.232 270.035 282.762 269.704 237.472 45.801 357.803 340.470 57.145 84.985 345.912 243.612 196.859 164.269 168.613 184.111 178.113 146.998 130.636 313.643 319.311 306.993 224.427 210.598 209.610 269.364 314.607 27.451 23.243 10.641 5.220 287.176 -999.000 -999.000 -999.000 -999.000 -999.000 -999.000 -999.000 -999.000 -999.000 -999.000 -999.000 -999.000 -999.000 -999.000 -999.000 -999.000 -999.000 337.009 10.607 22.492 335.065 -999.000 -999.000 6.301 298.182 52.308 69.903 295.473 291.606 19.549 262.446 -999.000 -999.000 -999.000 -999.000 -999.000 -999.000 -999.000
-999.000 -999.000 -999.000 -999.000 -999.000 -999.000 -999.000 -999.000 -999.000 -999.000 -999.000 -999.000 -999.000 -999.000 137.608 126.458 131.068 111.256 110.469 313.151 329.495 326.507 303.320 298.538 346.759 285.083 275.455 228.349 128.933 128.236 128.609 124.549 126.568 131.333 111.036 129.127 348.090 105.679 97.857 115.795 107.644 128.988 119.184 137.252 103.321 131.098 254.859 252.840 242.351 199.997 228.420 252.398 270.692 276.276 293.454 300.811 336.652 292.470 287.756 239.129 146.436 86.529 79.826 53.589 50.477 63.481 90.663 106.193 261.781 269.021 238.404 221.438 239.154 191.144 148.970 312.437 302.495 302.044 297.503 302.827 74.294 84.440 303.523 10.220 64.004 61.518 44.175 53.929 17.596 265.846 270.401 279.001 99.910 57.312 285.226 341.796 53.182 312.694 329.598 28.687 3.031 326.262 202.753 67.572 67.087 325.831 316.471 25.810 83.624 85.470 119.636 289.043 242.243 249.300 242.458 169.879 40.393 143.276 108.499 127.004 265.363 312.949 20.372 44.150 346.182 291.563 217.882 96.487 112.875 113.592 112.091 95.965 277.892 283.251 297.508 31.017 59.677 351.084 248.317 219.118 169.265 194.562 225.845 238.695 237.412 174.451 35.095 147.939 21.591 75.466 82.260 30.595 275.006 256.392 271.686 148.166 323.060 323.719 340.928 358.425 2.901 58.013 58.174 345.093 316.993 295.205 254.558 218.295 122.037 102.948 78.934 170.849 180.509 171.695 181.445 169.312 162.009 167.288 164.735 179.287 98.297 85.056 88.965 200.264 271.007 218.507 128.930 164.984 210.243 242.603 166.481 26.082 17.438 25.699 44.996 34.188 299.772 296.823 289.290 72.067 84.700 232.464 305.065 147.400 275.758 279.978 94.925 28.921 45.559 95.174 258.192 217.335 88.962 174.798 128.225 152.072 102.411 113.147 83.869 242.425 269.102 269.190 20.413 77.976 30.790 109.477 157.503 173.051 151.911 122.539 175.717 235.233 183.449 196.512 253.592 306.388 288.696 284.468 132.861 155.110 186.246 159.768 129.002 87.084 348.202 328.255 301.003 79.080 101.839 40.408 333.373 290.892 284.328 143.670 161.529 171.542 143.915 139.219 186.674 163.994 155.814 150.001 139.628 274.735 321.958 351.800 38.532 66.041 0.928 263.830 263.716 265.470 266.081 297.650 125.535 106.512 116.719 66.569 321.497 325.856 34.718 78.502 80.988 294.362 277.132 291.725 308.826 352.891 348.889 298.165 306.052 73.082 74.692 207.069 141.527 182.489 277.098 9.252 50.908 20.355 301.758 131.230 128.219 116.001 177.871 290.760 337.071 330.764 274.522 188.891 193.821 193.685 195.070 10.734 269.477 1.669 28.217 -999.000 -999.000 -999.000 -999.000 -999.000 -999.000 -999.000 -999.000 -999.000 -999.000 -999.000 -999.000 -999.000 -999.000 -999.000 -999.000 -999.000 -999.000 -999.000 -999.000 -999.000 -999.000 -999.000 -999.000 -999.000 -999.000 -999.000 -999.000 -999.000 300.192 348.549 -999.000 -999.000 -999.000 -999.000 -999.000 -999.000 -999.000 -999.000
-999.000 -999.000 -999.000 -999.000 -999.000 -999.000 -999.000 -999.000 -999.000 -999.000 -999.000 -999.000 -999.000 -999.000 -999.000 120.403 116.753 117.912 142.477 332.954 322.108 305.046 299.826 310.611 291.429 270.266 183.933 127.393 153.091 134.265 137.043 133.509 131.193 129.296 58.201 53.343 8.681 86.372 95.567 111.057 118.126 130.872 101.640 113.875 101.667 152.477 258.084 229.845 239.169 222.158 231.775 247.315 272.140 270.999 267.572 272.446 285.897 261.870 287.842 197.418 231.638 84.613 87.393 36.195 109.159 79.015 89.609 136.476 265.127 244.809 237.765 267.375 188.290 76.616 338.779 285.661 300.168 280.707 300.366 233.475 55.820 56.778 301.927 336.081 65.018 55.852 65.688 62.574 34.136 256.584 271.077 263.765 105.178 37.659 277.175 17.243 7.603 298.412 291.879 43.142 309.721 310.569 87.075 52.513 333.764 321.753 2.990 39.478 101.630 88.469 77.340 246.021 258.918 269.122 230.192 343.910 38.087 87.408 64.444 259.588 265.560 272.347 333.629 81.883 347.771 279.235 131.661 102.666 123.222 87.398 120.099 59.398 307.088 266.577 278.535 23.788 71.013 52.102 295.681 256.909 242.354 208.481 227.291 248.306 267.877 36.813 34.799 62.115 71.242 99.778 89.411 32.421 260.667 247.195 252.945 275.239 304.059 311.754 291.554 351.974 74.858 51.488 50.371 350.145 332.544 10.321 281.559 244.086 166.645 98.538 101.496 65.219 323.654 186.256 153.482 176.070 171.430 182.281 164.949 155.236 183.469 211.411 73.677 70.193 241.635 228.964 184.157 216.119 259.460 284.234 19.530 36.773 26.417 81.079 80.872 71.694 305.121 284.609 94.511 80.597 101.378 253.164 263.388 201.282 206.731 213.782 131.809 125.866 174.908 216.956 190.331 244.285 182.145 207.617 210.641 162.382 136.564 90.303 109.179 153.424 243.905 226.930 175.835 153.518 171.656 150.098 142.248 160.799 153.674 128.084 171.162 258.851 316.672 344.244 306.373 311.060 250.199 122.517 119.726 330.577 60.042 20.242 9.721 306.953 330.013 343.359 0.949 111.857 83.846 16.635 322.161 204.701 153.610 165.577 178.935 176.841 156.534 140.837 168.703 181.904 158.165 24.541 346.077 357.132 9.296 348.602 339.833 50.458 62.351 266.994 261.060 249.788 250.775 200.322 120.107 102.702 114.160 19.167 298.348 306.533 42.176 87.092 72.198 299.583 269.359 298.856 282.394 321.458 358.947 345.121 343.943 97.944 154.990 166.936 112.074 40.306 353.375 347.956 29.679 48.690 57.456 59.632 68.643 321.163 295.829 292.014 349.444 24.096 16.051 357.591 303.331 252.982 209.378 170.317 216.023 265.830 -999.000 -999.000 -999.000 -999.000 -999.000 -999.000 -999.000 -999.000 -999.000 -999.000 -999.000 -999.000 -999.000 -999.000 -999.000 -999.000 -999.000 -999.000 -999.000 -999.000 -999.000 -999.000 -999.000 -999.000 -999.000 -999.000 -999.000 -999.000 -999.000 -999.000 -999.000 -999.000 -999.000 -999.000 -999.000 -999.000 -999.000 -999.000 -999.000 -999.000
-999.000 -999.000 -999.000 -999.000 -999.000 -999.000 -999.000 -999.000 -999.000 -999.000 -999.000 -999.000 -999.000 -999.000 -999.000 -999.000 104.726 49.506 333.571 321.119 316.015 331.978 304.531 288.744 291.366 195.668 170.977 150.385 141.582 138.657 133.173 130.919 122.066 74.816 79.217 52.589 148.979 79.385 109.301 104.723 136.493 106.669 139.638 83.366 67.587 163.279 293.796 207.314 216.088 223.763 241.049 254.594 253.184 271.956 234.535 271.582 229.617 229.173 197.054 245.162 16.384 82.979 95.574 75.556 120.165 93.217 84.988 108.668 256.823 251.211 257.309 272.407 265.198 319.342 32.672 306.245 298.064 293.986 306.021 52.279 36.670 317.758 321.332 31.108 31.350 41.909 46.410 68.665 92.395 277.125 273.916 265.435 49.777 64.791 291.403 6.284 71.584 278.154 250.132 64.887 90.890 125.684 75.292 79.476 290.977 326.421 29.623 60.869 81.766 82.855 83.611 249.595 275.579 263.183 274.715 276.398 112.135 85.457 66.663 316.497 297.126 274.062 325.956 27.087 16.275 286.504 92.163 116.989 104.982 359.369 25.351 50.019 305.615 269.896 281.032 330.148 64.478 70.129 325.658 300.056 301.601 309.139 329.577 338.231 332.312 356.027 144.470 93.113 143.795 122.187 89.492 298.788 292.725 349.357 333.447 332.316 307.978 292.959 328.227 46.028 25.190 0.512 356.267 350.598 5.052 24.936 339.037 331.485 145.011 86.729 127.661 109.836 340.606 0.436 10.411 0.286 8.895 9.018 20.971 342.419 67.181 18.058 17.097 23.145 266.632 79.491 113.848 284.151 309.727 308.485 348.333 131.985 44.425 144.125 39.199 43.263 349.213 298.625 315.068 67.447 74.139 116.577 250.887 215.359 181.271 182.939 155.712 164.606 174.442 179.182 201.835 192.317 167.400 184.909 202.798 211.274 356.065 17.173 60.607 69.822 214.870 227.993 209.401 162.589 133.850 109.399 87.109 57.324 22.600 83.492 357.423 272.263 344.051 297.242 309.675 298.701 279.195 117.622 65.432 287.014 357.503 40.349 10.537 299.226 296.896 235.027 6.337 79.694 60.118 107.955 211.164 169.548 143.298 161.988 177.289 185.548 172.496 169.045 179.647 112.103 2.123 327.401 326.402 345.729 24.940 317.762 343.660 73.350 42.010 292.217 293.608 312.589 330.361 143.842 84.893 46.586 55.345 13.246 294.246 330.898 63.416 54.578 73.228 313.077 263.707 268.715 264.707 288.590 11.398 75.121 292.804 135.980 87.070 70.313 15.687 321.585 307.886 10.770 53.085 109.532 100.937 119.937 130.588 311.408 285.649 311.002 309.150 1.365 24.108 44.082 63.215 317.697 268.372 205.986 276.451 251.868 -999.000 -999.000 -999.000 -999.000 -999.000 -999.000 -999.000 -999.000 -999.000 -999.000 -999.000 -999.000 -999.000 -999.000 -999.000 -999.000 -999.000 -999.000 -999.000 -999.000 -999.000 -999.000 -999.000 -999.000 -999.000 -999.000 -999.000 -999.000 -999.000 -999.000 -999.000 -999.000 -999.000 -999.000 -999.000 -999.000 -999.000 -999.000 -999.000 -999.000
-999.000 -999.000 -999.000 -999.000 -999.000 -999.000 -999.000 -999.000 -999.000 -999.000 -999.000 -999.000 -999.000 -999.000 -999.000 -999.000 -999.000 328.595 333.248 326.022 346.512 1.528 288.218 214.778 167.559 174.083 154.446 150.512 136.502 128.649 130.601 124.229 112.600 127.867 92.220 123.562 143.651 101.217 120.599 106.382 157.658 91.718 97.385 80.438 63.302 75.002 185.807 193.432 209.403 218.825 230.215 249.144 231.313 233.290 234.209 225.398 229.709 208.618 200.624 191.905 209.885 150.493 120.019 140.991 142.244 102.634 72.546 91.184 357.951 260.161 276.667 263.821 275.250 76.438 354.648 304.974 284.993 301.336 299.345 46.237 62.319 313.600 318.319 23.665 46.971 27.207 84.893 78.502 303.066 289.184 287.536 286.732 27.776 306.693 324.722 57.927 53.511 274.674 308.530 59.205 287.362 280.761 79.410 11.755 305.375 350.136 68.845 76.296 87.022 79.092 110.488 269.575 262.190 258.070 262.893 247.044 117.216 78.141 59.001 260.428 322.880 267.859 287.135 24.661 75.728 77.230 93.632 126.780 64.211 316.185 339.096 59.269 323.206 279.428 286.155 316.256 25.216 54.099 29.836 288.644 214.836 298.811 297.435 306.498 18.313 133.637 181.867 132.802 122.178 110.290 93.185 277.362 303.010 330.084 334.141 337.723 327.826 307.043 298.626 163.185 72.910 54.630 7.068 330.927 1.764 21.905 340.721 0.417 51.062 141.269 58.648 39.226 329.575 18.410 37.001 19.371 36.316 36.544 16.829 347.970 337.320 348.400 21.332 102.473 113.610 132.440 249.450 249.230 262.776 272.283 280.921 6.212 44.501 25.609 16.264 20.633 318.817 305.255 48.350 44.536 24.265 109.713 158.464 201.555 182.272 169.358 155.638 151.972 215.800 224.027 183.524 197.875 207.084 195.552 217.713 179.755 145.093 157.463 59.133 89.269 199.859 196.592 187.746 173.668 150.231 129.724 108.961 88.625 75.410 92.623 164.535 264.221 223.900 267.743 288.553 304.121 322.454 60.508 37.320 289.447 5.673 84.186 42.612 269.676 280.620 43.010 35.974 57.368 67.684 138.313 163.100 166.012 170.174 156.267 28.877 267.193 348.730 42.245 19.124 13.577 337.024 296.409 308.244 54.854 36.347 282.092 36.784 82.291 49.496 275.623 306.256 329.056 325.255 32.008 55.593 27.619 35.464 320.067 277.187 32.081 103.665 91.142 97.774 244.042 257.079 249.780 237.990 255.589 270.018 146.765 85.837 106.620 336.557 19.394 351.911 288.936 163.816 139.305 133.948 120.603 113.299 109.303 102.009 291.374 274.816 285.441 316.092 271.344 8.849 88.216 57.488 198.189 321.268 254.020 281.630 271.121 -999.000 -999.000 -999.000 -999.000 -999.000 -999.000 -999.000 -999.000 -999.000 -999.000 -999.000 -999.000 -999.000 -999.000 -999.000 -999.000 -999.000 -999.000 -999.000 -999.000 -999.000 -999.000 -999.000 -999.000 -999.000 -999.000 -999.000 -999.000 -999.000 -999.000 -999.000 -999.000 -999.000 -999.000 -999.000 -999.000 -999.000 -999.000 -999.000 -999.000
-999.000 -999.000 -999.000 -999.000 -999.000 -999.000 -999.000 -999.000 -999.000 -999.000 -999.000 -999.000 -999.000 -999.000 -999.000 -999.000 -999.000 325.230 328.759 18.373 24.195 334.574 174.081 137.307 159.442 159.615 157.681 143.269 123.946 118.141 126.334 134.709 198.133 218.369 116.522 122.821 137.949 121.650 113.840 117.705 122.972 197.983 78.009 104.661 115.460 49.498 126.469 315.000 206.884 219.746 231.340 244.772 219.530 227.977 217.718 203.762 219.895 209.207 224.558 217.212 162.835 141.291 132.054 157.290 143.538 110.388 82.293 57.909 351.703 272.587 259.589 262.754 247.290 189.086 307.904 278.569 260.805 257.692 218.176 120.211 292.712 292.173 76.031 79.832 213.068 127.000 98.471 107.249 314.748 281.887 288.467 298.596 329.999 17.540 334.951 112.761 72.882 250.065 300.831 155.996 192.348 161.596 85.525 317.068 271.338 109.857 128.043 155.664 119.466 93.358 123.879 289.000 268.283 270.739 279.151 318.605 22.246 30.476 12.258 50.729 245.702 265.751 250.633 197.491 120.874 116.276 112.735 89.451 335.317 304.392 347.808 69.541 37.331 278.481 267.606 306.292 60.931 44.677 15.014 350.332 259.056 252.490 232.005 213.649 168.973 148.007 121.421 137.234 166.209 140.339 104.327 263.172 276.489 275.939 315.036 331.918 7.790 295.863 245.996 205.438 136.611 175.449 229.453 219.873 130.833 92.607 306.389 298.810 36.354 53.847 33.276 6.192 297.658 35.613 124.855 195.249 199.937 194.031 69.460 52.022 42.281 166.336 147.435 135.389 131.863 149.989 199.614 239.998 250.052 226.201 154.156 18.251 267.191 339.499 336.410 41.149 72.349 309.889 140.454 132.734 129.420 127.948 145.253 168.507 175.306 169.693 172.750 197.323 242.681 234.403 127.005 191.647 279.878 317.580 300.185 334.659 324.249 206.059 82.183 83.274 61.031 196.348 200.834 189.628 177.905 146.465 142.136 153.403 156.504 140.281 190.332 270.903 234.550 244.274 276.448 243.229 266.289 63.374 353.864 296.061 69.890 76.393 15.973 283.465 269.540 70.982 154.572 131.037 144.011 161.237 201.924 343.379 27.657 42.332 356.194 327.576 357.231 17.273 356.169 10.731 330.088 287.240 268.555 36.010 29.369 285.026 50.254 85.250 120.063 259.364 238.422 201.047 226.407 272.005 8.511 95.982 27.562 307.862 245.299 95.356 128.903 124.872 111.166 175.839 269.218 252.615 250.856 243.247 238.877 101.365 5.683 49.702 359.834 314.036 16.186 231.170 93.878 141.488 153.694 118.690 107.660 122.284 279.270 265.889 281.827 244.256 284.356 282.070 103.591 68.462 45.570 130.689 301.536 285.046 268.027 308.942 -999.000 -999.000 -999.000 -999.000 -999.000 -999.000 -999.000 -999.000 -999.000 -999.000 -999.000 -999.000 -999.000 -999.000 -999.000 -999.000 -999.000 -999.000 -999.000 -999.000 -999.000 -999.000 -999.000 -999.000 -999.000 -999.000 -999.000 -999.000 -999.000 -999.000 -999.000 -999.000 -999.000 -999.000 -999.000 -999.000 -999.000 -999.000 -999.000 -999.000
-999.000 -999.000 -999.000 -999.000 -999.000 -999.000 -999.000 -999.000 -999.000 -999.000 -999.000 -999.000 -999.000 -999.000 -999.000 311.131 312.586 318.386 340.288 63.033 84.106 219.231 64.695 115.099 114.886 133.759 141.223 108.555 111.489 119.205 120.149 148.750 208.618 165.504 128.655 134.048 155.735 123.914 103.592 127.541 147.461 148.849 148.545 124.803 136.817 168.768 132.778 148.158 224.472 212.454 216.486 226.135 225.335 215.784 223.695 216.705 208.090 226.279 228.425 211.051 160.367 152.622 136.175 134.891 290.213 112.916 99.463 354.671 214.374 352.035 258.790 259.322 238.262 190.751 275.443 240.353 242.301 224.724 193.764 227.557 243.616 242.955 177.971 145.071 152.235 157.333 102.772 131.987 298.938 286.940 269.913 303.129 307.936 288.854 60.542 90.072 341.270 260.259 35.722 150.328 148.779 234.256 203.539 189.107 158.670 147.562 149.364 166.681 113.051 107.608 69.291 347.586 285.646 285.250 299.654 198.620 101.310 75.434 312.735 16.567 60.932 278.478 241.661 160.140 130.311 121.498 114.385 59.777 290.420 297.550 355.008 61.306 74.716 270.849 243.708 241.632 246.954 72.374 45.584 1.859 351.437 270.650 263.119 251.380 117.300 97.955 54.913 212.095 53.632 74.727 55.838 268.797 270.116 247.682 244.023 246.951 207.211 109.812 173.659 188.830 181.874 182.398 237.598 272.630 138.699 127.856 199.884 173.012 91.689 51.218 22.082 298.838 279.795 112.106 115.036 54.745 48.686 30.573 26.068 141.698 180.799 150.471 133.941 130.292 142.246 171.905 238.168 255.575 208.920 203.008 245.351 213.410 118.959 242.058 291.598 100.324 74.388 189.516 156.080 159.628 154.254 140.063 155.255 189.715 179.955 160.837 141.332 194.747 226.157 182.346 167.331 192.892 204.103 210.758 223.355 265.243 276.967 15.126 36.804 2.583 7.054 35.781 52.183 77.931 139.183 163.981 158.942 145.279 164.711 111.379 113.198 246.437 286.087 235.961 277.319 239.599 221.823 97.731 319.235 288.573 65.403 57.138 86.876 294.469 196.979 142.607 162.174 173.123 147.201 52.991 10.326 353.093 328.278 20.334 36.253 310.783 273.985 35.994 74.105 39.356 2.959 289.623 274.311 18.836 30.740 335.936 83.662 76.229 161.385 264.000 209.413 201.475 191.740 180.618 212.210 306.755 14.326 269.045 43.801 129.105 119.681 93.712 77.942 358.063 288.049 266.200 292.320 250.372 259.104 181.391 89.025 6.000 274.743 44.369 142.170 270.835 90.807 106.191 99.846 107.001 89.861 89.477 332.249 247.385 261.039 273.713 269.214 338.446 111.327 59.955 40.384 10.781 48.733 295.632 267.050 277.175 -999.000 -999.000 -999.000 -999.000 -999.000 -999.000 -999.000 -999.000 -999.000 -999.000 -999.000 -999.000 -999.000 -999.000 -999.000 -999.000 -999.000 -999.000 -999.000 -999.000 -999.000 -999.000 -999.000 -999.000 -999.000 -999.000 -999.000 -999.000 -999.000 -999.000 -999.000 -999.000 -999.000 -999.000 -999.000 -999.000 -999.000 -999.000 -999.000 -999.000
